# .PCD v0.7 - Point Cloud Data file format
VERSION 0.7
FIELDS x y z
SIZE 4 4 4
TYPE F F F
COUNT 1 1 1
WIDTH 1576
HEIGHT 1
VIEWPOINT 0 0 0 1 0 0 0
POINTS 1576
DATA ascii
38.956036 6.6362872 1.1994697
40.666534 6.708746 1.1712825
-23.575981 6.9406786 1.0522734
-16.44269 7.0276337 0.97923213
-15.793727 7.1243663 0.99218392
-15.255657 7.1554899 0.93166804
8.4729919 6.9135962 0.94839418
8.8510399 7.0376978 0.93946183
34.605667 6.9758167 0.98269856
40.658623 7.042079 1.1977965
-15.951646 7.2405758 1.1476847
-15.755862 7.3148103 1.0246272
-15.394945 7.2303543 1.1087539
-15.20864 7.2493668 1.0446594
8.3523836 7.3736157 0.97827977
-15.682775 7.6340575 1.0120754
-15.62658 7.8984132 0.98806399
-15.589836 8.0554276 0.98719352
-15.61779 8.1631269 1.1901355
-15.546312 8.2313185 1.0093751
9.1185122 8.2556505 0.93464047
-15.852532 8.6491852 0.97541398
-15.52646 8.4001522 0.98481441
39.180527 8.5786171 1.1557951
-16.177227 8.9343433 0.96563637
6.9418316 8.9815884 1.1414592
7.3498173 8.9366302 0.96904814
34.670067 8.8372631 1.0828674
39.921329 8.8855858 1.1376448
-16.206249 9.2543774 0.96145844
-16.191229 9.1560659 1.0298185
6.8701167 9.0156326 1.1418073
7.023798 9.1666298 1.0423927
11.232385 9.1968575 0.98667896
33.000431 9.0226202 0.91591835
34.581924 9.1259842 1.1273534
-16.218609 9.4530363 0.95893425
9.8478184 9.5721035 0.9498502
39.840382 9.3946257 1.1356815
-16.24206 9.7373819 0.95514798
39.825047 9.6195993 1.164552
-16.268236 10.064892 0.95072341
-16.299276 10.363338 0.94647771
7.9702616 10.322259 0.94978654
10.748302 10.207036 0.90429437
10.829139 10.273148 0.97484362
-16.302828 10.567911 0.94387615
-16.09071 10.676665 0.94664693
-15.783539 10.756149 0.9515841
-15.456777 10.776822 0.95759958
-15.131119 10.787275 1.0742795
-14.912427 10.796299 1.1690276
10.862725 10.78976 0.91912675
-15.084322 10.803167 0.96435976
-14.842072 10.830462 1.0183331
-14.522716 10.839498 0.97446615
-14.224872 10.856982 0.97978538
-13.93423 10.872647 0.98494977
-13.640848 10.887433 0.97015333
-13.374467 10.907403 0.99469835
-13.059008 10.939762 1.0714655
-12.798269 10.974823 1.0656569
-12.453012 10.960567 1.01039
-12.261853 11.051152 1.0634599
-11.583254 11.033026 1.0243311
-11.185193 11.082921 1.0302498
-10.903563 11.038714 1.0356464
-10.631451 11.038062 1.0401289
-10.477306 11.078334 1.0419713
7.1217346 11.03685 0.97024709
9.6369572 10.952201 1.1879238
24.719732 11.089875 0.90650678
27.180492 11.06557 0.91517788
27.600233 11.08667 0.93631488
32.621586 10.915092 1.1360489
32.828236 10.816317 1.1514131
-23.868935 11.3507 0.94112301
-12.230198 11.23428 1.0100853
-11.922155 11.155866 1.0166134
-11.556198 11.242811 1.0214586
-11.26089 11.155506 1.0278127
-10.850002 11.272842 1.0327432
-10.604137 11.388354 1.0795978
-10.327409 11.229552 1.0418388
-9.3113842 11.285154 1.0566523
-9.1412201 11.323076 1.0585207
-8.8231411 11.297892 1.0636591
-8.5533752 11.282638 1.067837
-8.2642641 11.277622 1.0720295
-7.9515042 11.303722 1.0758787
7.0776539 11.285923 0.97333694
8.3964138 11.177678 0.97904372
-10.810287 11.402232 1.117126
-10.237951 11.491726 1.0388088
-10.190261 11.560635 1.0383737
-9.0597496 11.606123 1.0666575
-8.9871445 11.500625 1.120899
-7.826303 11.568736 1.0725709
-7.7377896 11.550398 1.0805118
8.5394077 11.644772 1.0088433
-10.207641 11.743464 1.03495
-10.065254 11.789416 1.0363427
-9.7746658 11.800714 1.0876429
-9.4356604 11.70421 1.0399247
-7.8092532 11.790236 1.0685768
-7.7919216 11.942783 1.0658786
8.8532877 11.750098 1.0787442
22.051632 11.983133 1.0079012
22.387506 11.980335 1.0757003
22.77265 11.978158 1.0238322
23.429314 11.959028 1.0488908
24.576221 11.775247 0.92353344
-7.8044839 12.18916 1.0609657
-1.6052564 12.26379 1.1126602
-1.4325877 12.267266 0.90778345
22.071245 12.215868 1.0311599
22.382509 12.105473 0.92774415
23.066929 12.192276 1.0352682
27.268806 12.269337 0.97887111
27.753036 12.053097 1.0149982
-11.900872 12.565793 1.04492
-10.970355 12.404219 1.136265
-10.245728 12.300702 1.0172248
-8.9563036 12.594005 1.1106976
-7.8069787 12.426477 1.0563331
-7.7972679 12.559406 1.053867
-1.6092818 12.393152 1.123257
-1.4238044 12.380956 0.99273777
9.7454758 12.388847 0.90554804
10.038234 12.34069 0.90685374
21.88056 12.433005 0.99989986
22.744041 12.340359 0.97114569
22.898115 12.374506 0.96174955
23.593828 12.335069 0.95916092
24.572607 12.3899 0.91866684
27.43606 12.508862 1.0186219
-10.547354 12.846377 1.0857791
-7.8398185 12.792938 1.0230286
-7.5537586 12.754189 1.0755681
-6.8864317 12.894234 1.0181985
21.884008 12.842728 1.0650798
23.324512 12.629119 0.96653765
24.623663 12.740163 1.0403183
-7.9064445 13.071999 1.0424645
-7.7937713 12.91632 1.0532345
7.0984068 12.983508 1.0875663
21.879807 12.94887 1.0388349
21.911087 13.018029 1.1723553
24.790224 12.926413 1.0047317
25.47718 13.129479 1.1465875
-7.898416 13.322654 1.0376194
30.916904 13.36318 1.1366423
-12.211878 13.56856 0.93514013
-7.924819 13.628574 1.0312363
21.808157 13.51266 1.0076059
29.157703 13.531821 1.1829271
29.429737 13.767597 1.1316442
31.019421 13.609399 1.1971848
-7.942358 13.92571 1.0251046
8.9512997 13.867997 1.0557327
31.776484 14.042212 0.94395649
32.589912 14.013546 1.1317323
-7.9432526 14.258163 1.0184317
6.5873404 14.269453 1.0387799
24.952465 14.289112 1.0362798
-10.457126 14.691843 1.0153776
-8.660202 14.603639 0.9902879
-7.9494338 14.562321 1.0122323
6.4896102 14.476994 1.0278035
6.7489958 14.533369 1.0746361
6.9141417 14.588617 1.169645
7.370894 14.56376 0.97033978
7.5390048 14.596541 1.0225322
24.558424 14.621936 1.0772966
31.178066 14.488665 1.1650592
-8.8921928 14.89388 1.0629654
-8.1151199 14.929751 1.0489714
-7.9825735 14.864776 1.0057333
6.6674562 14.705513 1.094254
6.9699101 14.934304 1.0186749
21.71516 14.917024 1.0413661
-20.765501 15.001146 1.1366607
-10.80286 15.284319 1.0508161
-8.4512377 15.122514 1.1016171
-8.1449814 15.128373 1.13044
-8.005249 15.156359 0.99955332
6.8385239 15.125176 1.0182382
6.9813228 15.02162 1.0191085
7.855979 15.103203 1.0087216
26.080984 15.269069 1.0702043
-8.0231781 15.443869 0.9934895
7.4167728 15.56 1.0035572
-8.0369072 15.731253 0.98745465
7.3363061 15.770623 0.99986285
7.6674747 15.744036 0.99723226
-8.0628977 16.082035 0.98505515
8.3296719 15.9113 0.98701942
-10.411777 16.221273 0.93367434
-8.1111565 16.377737 0.97089946
-8.0688276 16.292669 0.9428097
10.285637 16.217091 0.95093352
21.723543 16.369486 1.0560321
22.951159 16.448572 0.98423964
31.591137 16.326929 0.91441667
-8.0600576 16.534037 0.97065574
7.138062 16.675863 0.97978693
9.3660536 16.50646 0.96357644
21.810677 16.551188 1.0813333
6.9894452 16.945461 0.97511643
7.2924399 16.816681 0.9779672
9.7228127 16.941771 0.95072335
-2.1343634 17.294329 0.96820563
-2.0063238 17.320177 1.062125
-1.6809994 17.326382 0.96189237
6.8800936 17.161728 0.97407937
7.6680179 17.163767 1.0656428
23.992357 17.318283 0.92968762
-1.9925827 17.450344 1.096729
7.1854715 17.418463 1.0212023
9.9626417 17.962902 0.92725134
9.4679089 18.16103 1.0310556
9.6991386 18.029778 1.0452945
10.051894 18.208324 0.96931905
8.1804361 18.633677 0.93077761
34.86515 18.725811 0.92153794
-8.7414532 19.193745 0.90821832
-8.575839 19.188168 0.9099592
6.167964 19.13953 1.028106
6.5121846 18.969393 1.0341216
6.6483126 19.006859 1.0449848
7.0596194 19.069391 0.99926555
7.5944877 18.917473 0.9298116
-9.0971193 19.238319 0.90371156
-8.884511 19.2955 0.92774868
-8.4935837 19.223389 0.90698338
-8.3253288 19.261108 0.91082954
24.015568 19.370056 0.90206921
6.5533652 19.983604 0.91465932
10.639981 19.865089 0.99466896
6.4985304 20.304096 0.90792823
6.6432419 20.264053 0.96785265
-8.6575565 20.516573 1.1261803
-8.5527477 20.861439 0.94651401
6.4501357 20.848331 0.95671958
10.716076 20.972298 0.97005534
17.526417 20.977251 0.96272796
18.358263 20.957838 0.92686146
17.589878 21.139004 1.152056
18.378548 21.012896 0.91360486
-2.2765157 21.457638 1.0512739
-1.6946129 21.54973 0.90574914
17.662338 21.401518 1.0838972
18.302456 21.373089 0.93853682
-2.1644051 21.841074 1.1377701
-1.8586583 21.823051 0.91595888
-1.7791471 21.701326 0.95136338
6.4883609 22.92301 0.92803216
4.6213832 23.286024 0.93571377
6.2622542 23.37882 0.93564677
4.4033637 24.391989 0.91169208
-8.6934433 25.109432 1.0121335
-3.1400414 31.64043 1.1451834
-9.1984367 33.051582 1.018901
21.594995 -81.81881 1.2121413
6.1312504 -78.232658 1.3199061
12.797117 -76.966309 1.257691
15.833298 -76.831673 1.2435795
16.098152 -76.949326 1.2422335
13.265772 -76.575272 1.4443226
3.0714986 -76.327591 1.3628341
-2.1672018 -76.168495 1.3673187
3.8253431 -75.133202 1.2513261
-6.3907914 -74.757057 1.3767469
24.118641 -74.907288 1.2064545
-6.3722153 -74.267715 1.3804898
-6.2914739 -74.216736 1.3201147
3.0139682 -73.677872 1.3268995
15.7547 -73.749718 1.2466868
-6.6223059 -72.843513 1.2307322
-6.5153966 -72.803101 1.2979887
11.088849 -71.138878 1.4711351
11.931444 -70.64325 1.2354579
15.350727 -70.501808 1.2514668
38.425415 -70.723312 1.4230068
12.886201 -70.31411 1.2587456
34.637955 -70.325844 1.2316216
-11.001232 -70.196259 1.2345172
-9.0657654 -70.0979 1.255358
-7.9358864 -70.108604 1.2506289
-5.6132584 -70.169098 1.2454128
13.926218 -70.00061 1.258589
14.196954 -69.645119 1.216838
-10.821708 -69.579605 1.3249714
-9.1689758 -69.404869 1.228163
13.029106 -69.501747 1.3737288
13.217173 -69.519379 1.2537793
32.365303 -69.531601 1.3847033
36.53891 -69.468796 1.2413827
-10.942049 -69.063126 1.2657818
-11.045042 -68.919472 1.238029
31.329229 -68.580818 1.2116652
11.317654 -68.017776 1.2919298
-10.685635 -67.13797 1.2032609
11.505109 -67.043571 1.2503306
-10.944118 -66.882645 1.242848
11.499146 -66.677856 1.2308565
11.947459 -66.654099 1.3641812
12.925855 -66.659981 1.3170668
15.146173 -66.831703 1.2419428
-11.694489 -66.591156 1.2751617
11.374363 -66.494537 1.3152136
11.553376 -66.314613 1.3939527
12.936878 -66.5989 1.2662494
33.990738 -66.327995 1.2736104
34.288734 -66.570778 1.2973598
12.619801 -66.119873 1.2046639
34.676243 -66.278366 1.2726039
34.877773 -66.297516 1.2485731
37.050735 -66.232674 1.2562919
-12.413248 -65.726624 1.404595
-11.542372 -65.775139 1.2765914
-11.355251 -65.902435 1.4226458
12.517017 -65.994835 1.2053285
-11.593513 -65.658112 1.2490027
13.027832 -65.402618 1.3147249
35.795479 -65.645889 1.2255981
13.164816 -65.105499 1.3170682
11.746428 -64.966202 1.469803
30.354557 -64.98381 1.2126186
11.429268 -64.617653 1.3291056
13.395432 -64.697029 1.2176073
13.558279 -64.7239 1.431949
11.055085 -64.276657 1.2920628
23.550295 -64.432892 1.2822745
10.877476 -63.927109 1.3331668
11.278162 -64.042046 1.2142472
29.309656 -64.068687 1.2814808
29.969233 -63.786942 1.2626336
30.130592 -63.755455 1.2803727
-18.919079 -63.326866 1.2125537
29.634722 -63.557522 1.2811906
-18.562342 -63.031723 1.4288036
-15.376473 -63.180473 1.2071874
11.742675 -63.005348 1.2145073
37.553467 -63.223141 1.2694719
37.926628 -63.201256 1.2568773
38.359299 -63.012691 1.2439065
-18.656227 -62.852749 1.3938888
-18.516262 -62.968376 1.3652818
11.801888 -62.816833 1.2649137
13.130701 -62.849464 1.3024768
13.229861 -62.827152 1.3060139
-18.714907 -62.650837 1.3310441
-16.218277 -62.61496 1.2129767
11.586809 -62.636639 1.3406477
11.757362 -62.644241 1.335264
13.179588 -62.594383 1.3107542
45.653675 -62.64991 1.2266887
11.852734 -62.164696 1.4576676
12.454296 -62.369621 1.2785128
12.786926 -62.161263 1.2953476
12.17618 -61.964989 1.3801761
38.858685 -61.94701 1.3052466
11.647389 -61.464642 1.2356335
-18.985411 -61.023289 1.22517
-18.774416 -60.816959 1.2894186
-19.038864 -60.03875 1.235317
10.728519 -60.076668 1.2578135
10.066403 -59.835545 1.3056371
10.762849 -59.960133 1.2141933
-19.067265 -59.499516 1.2296934
13.040454 -59.48045 1.2165148
13.3022 -59.526581 1.2726737
-24.935202 -59.349415 1.2424616
-24.722643 -59.28125 1.3450422
-24.191462 -59.123547 1.2177008
-23.145235 -59.151123 1.2330445
-22.901909 -59.147705 1.2317432
11.225273 -59.201263 1.2583756
13.243642 -59.23727 1.2788738
13.579222 -59.154819 1.3486439
41.478729 -59.301811 1.2144428
-22.873985 -59.061749 1.3658624
-20.315996 -58.87561 1.2045733
41.523197 -58.859936 1.2314719
41.827972 -59.03178 1.2437122
12.729353 -58.663692 1.3749466
41.7724 -58.752777 1.2987154
44.732716 -58.587406 1.2271417
-25.148813 -58.45998 1.2636034
11.275566 -58.270233 1.3879468
11.480878 -58.243519 1.3547672
12.086801 -58.252644 1.3646272
12.411705 -58.38726 1.3697915
42.10326 -58.258289 1.2257942
42.484577 -58.217716 1.2717561
42.995636 -58.362949 1.2340866
45.144424 -58.38533 1.2395498
11.353246 -57.986706 1.3764588
11.520175 -57.997482 1.3920172
42.280849 -57.908627 1.2294691
10.97291 -57.819309 1.3703457
-24.958797 -57.070164 1.2140865
45.214508 -57.103321 1.2481916
45.311401 -57.113415 1.2433679
-24.592384 -56.923084 1.2531562
-25.527821 -56.649155 1.2105138
-25.210926 -56.448719 1.2396425
-24.996147 -56.535942 1.230653
-23.779448 -56.549931 1.3788906
-23.628855 -56.465687 1.474241
-19.910154 -56.557247 1.2538146
-19.694012 -56.603729 1.223213
-25.287285 -56.366673 1.3219101
-23.750372 -56.147259 1.3833601
-19.926582 -56.126553 1.4
-19.728022 -56.189754 1.4
-25.900204 -55.936485 1.4339086
-24.087414 -55.880562 1.292479
-23.804678 -56.035927 1.4883391
-19.983839 -55.970909 1.3302615
-26.026123 -55.661625 1.4068559
-24.406702 -55.740894 1.3961078
45.10722 -55.700882 1.2596005
-25.450512 -55.475586 1.204935
-48.975479 -54.802505 1.2221913
44.866058 -54.715172 1.3017938
45.021404 -54.571468 1.267825
49.069626 -54.325455 1.2524972
51.994698 -54.422092 1.300285
52.331604 -54.455639 1.211221
49.183327 -54.122097 1.2444159
52.188919 -54.226265 1.2238213
52.434162 -54.121521 1.2411143
52.540894 -54.12941 1.3004273
-19.479746 -53.720535 1.2136555
49.5802 -53.987129 1.4297981
49.962448 -53.918716 1.2264121
50.143303 -53.92408 1.2437704
52.778198 -53.944885 1.2410588
-19.522718 -53.423138 1.2176604
-19.482864 -53.662525 1.2527125
7.7194548 -53.497311 1.3630937
7.8927231 -53.510014 1.2841949
52.915939 -53.186646 1.2562673
17.014988 -52.897724 1.3288141
17.145657 -52.904255 1.294379
17.008999 -52.782684 1.2792947
44.919273 -52.686703 1.2375283
45.077404 -52.701275 1.26947
53.076912 -52.641102 1.2490655
54.449459 -52.395618 1.2215847
-24.811096 -52.087162 1.350073
65.227043 -52.089565 1.2080917
0.46277747 -51.64159 1.2718543
65.828201 -51.6819 1.2079254
66.173386 -51.626888 1.2075062
0.26628724 -51.464901 1.4
0.41652545 -51.482307 1.3295218
46.5882 -51.366333 1.2369434
43.965275 -51.081146 1.3511678
43.892727 -50.879215 1.4476033
50.718624 -50.716118 1.2604389
70.521706 -50.913963 1.2248726
46.180862 -50.687065 1.2613755
51.479572 -50.603504 1.2677603
44.8284 -50.211849 1.236119
45.258297 -50.306911 1.2713221
45.326759 -50.138527 1.3317311
46.248219 -50.321278 1.4481091
24.761822 -49.959312 1.3060229
24.921082 -49.868034 1.3466411
45.151073 -49.85701 1.3575895
45.470264 -50.065174 1.3288587
45.734333 -49.93787 1.2744457
46.156128 -49.928177 1.2544751
45.620674 -49.720657 1.3290162
52.520947 -49.559662 1.3723714
52.527908 -49.277954 1.3023473
52.849121 -49.269707 1.2736533
60.931755 -49.209675 1.2197523
62.25304 -49.271179 1.2176557
60.929115 -48.672035 1.241559
62.143578 -48.752827 1.2034569
-58.486359 -48.447826 1.3131737
24.821796 -47.351723 1.3216696
-38.536942 -46.830742 1.3172762
-38.462757 -46.705002 1.236995
-31.549685 -46.556351 1.3241348
-31.287153 -46.632332 1.2457443
25.993406 -46.689835 1.3312992
26.13026 -46.535744 1.4047195
-38.465214 -46.259033 1.2068365
-34.820541 -46.370869 1.3123007
-34.76717 -46.283062 1.2237005
-33.238213 -46.205929 1.302837
-31.244953 -46.295082 1.2966976
-27.076178 -46.378094 1.303877
26.594843 -46.339291 1.4
26.743401 -46.205719 1.4
-34.687294 -46.15461 1.2035097
-31.001274 -45.99334 1.209083
-27.127172 -46.137836 1.2761573
-26.976294 -45.960388 1.2705424
26.596764 -46.10685 1.3716743
26.878294 -46.067654 1.4
-34.839687 -45.649544 1.2084858
-27.37904 -45.756203 1.2760112
-27.066769 -45.870632 1.2675869
26.000719 -45.644165 1.4
26.434698 -45.661808 1.3812637
26.792328 -45.660042 1.3868029
-28.563702 -45.328716 1.294172
-28.039936 -45.442482 1.456872
-27.571539 -45.426777 1.2967482
-21.943857 -45.457756 1.3913127
-35.499451 -45.096359 1.2360265
-28.524151 -45.075623 1.3953552
-28.46097 -45.088966 1.2549622
26.978832 -45.056595 1.3010682
-28.515055 -44.91568 1.4896365
-22.902487 -44.838039 1.2657001
-22.612291 -44.883682 1.2425827
23.030155 -44.86512 1.4671292
23.134995 -44.786461 1.3658518
24.780035 -44.807674 1.3790675
25.070702 -44.828651 1.3326793
26.868433 -44.791809 1.3658308
-24.147844 -44.631969 1.4731238
23.563297 -44.556038 1.3729148
24.098747 -44.435638 1.4
24.446827 -44.691246 1.4
24.683313 -44.691856 1.3743193
25.119263 -44.598469 1.3814627
25.246416 -44.668427 1.4
-24.431608 -44.314259 1.207667
-24.177088 -44.228901 1.3402084
23.79644 -44.222893 1.4
-24.311378 -43.959145 1.3156451
-24.2118 -43.993412 1.3856913
-23.237579 -43.959587 1.3405089
-23.351196 -43.514851 1.4638785
-25.618107 -43.018715 1.2218943
-25.218786 -43.150818 1.221242
-25.520378 -42.766487 1.4502568
-25.340372 -42.720013 1.3883308
-25.103424 -42.85754 1.2694772
-23.168797 -42.064457 1.2298925
-27.565937 -41.79789 1.2357426
-26.638168 -41.967243 1.4039099
-25.915184 -41.732056 1.2355268
-31.448845 -41.464626 1.2996733
-31.144276 -41.437065 1.2444839
-28.247051 -41.664036 1.4381719
-28.090242 -41.584637 1.3450315
-26.857327 -41.668816 1.2372053
-26.507261 -41.514511 1.2827561
-26.183029 -41.443199 1.4584951
-25.653275 -41.607487 1.336913
-27.382286 -41.160751 1.4
-27.160744 -41.304459 1.4
-22.872974 -41.194801 1.3123151
-23.10041 -40.967327 1.3280094
-23.014183 -40.966366 1.4368006
-22.72204 -40.948376 1.2714034
-23.209913 -40.797005 1.3954495
-22.906948 -40.650719 1.4390638
-22.98999 -40.342617 1.4021393
-22.038401 -39.955421 1.3750383
-7.253418 -40.006546 1.312223
-7.1875038 -40.063374 1.2607867
-23.027252 -39.828342 1.4023103
-22.035927 -39.860245 1.4132162
-11.296067 -39.813972 1.3977703
-6.9657974 -39.689594 1.2272323
-7.0118895 -39.441231 1.3129903
-6.7035127 -39.537792 1.3697683
-41.48465 -39.15937 1.2080646
-41.389126 -39.060257 1.2718291
-25.358324 -39.037506 1.3987545
-11.031682 -39.009129 1.4760346
-6.9994526 -39.122211 1.231389
45.343063 -39.024616 1.3311672
-48.686752 -38.933487 1.3419733
-41.318672 -38.911739 1.2799528
-8.9157152 -38.751507 1.3403902
-7.3940134 -38.728664 1.3994997
-6.897779 -38.984554 1.3069901
-6.5520568 -38.845753 1.2905684
45.490868 -38.803471 1.334972
46.354076 -38.84729 1.3274734
-41.226322 -38.495346 1.3540177
-8.6375065 -38.463135 1.2891061
-6.6315002 -38.549301 1.2995631
-6.4335446 -38.59935 1.3233542
45.517014 -38.621506 1.390311
46.419468 -38.628815 1.2899042
46.556477 -38.680416 1.2116657
-33.337204 -38.165619 1.3005116
-8.8013449 -38.228733 1.3830113
-8.5889397 -38.304672 1.3369631
-8.3540344 -38.378979 1.2510223
45.532597 -38.194614 1.2824358
-33.207073 -37.857201 1.3029718
-26.223312 -37.916096 1.2208455
-8.8134098 -37.902725 1.3485579
-8.562398 -37.858387 1.3696513
-8.26478 -37.910522 1.2928814
-7.8981361 -37.899521 1.3097837
-7.7963638 -37.886944 1.2862579
45.558331 -38.061401 1.2748439
45.878948 -37.858826 1.370227
46.696083 -37.919289 1.3559489
-33.154236 -37.733734 1.3233175
-25.8839 -37.612133 1.2824323
-8.2103853 -37.723854 1.317404
-8.0846376 -37.639767 1.320745
-6.5590224 -37.705799 1.3025905
45.140312 -37.623535 1.2547113
45.410389 -37.748718 1.3178551
45.841003 -37.773251 1.3864069
46.097775 -37.642628 1.4
51.433479 -37.574776 1.2839227
-25.854975 -37.319778 1.3747492
-25.734396 -37.399734 1.2977453
-8.0054779 -37.405716 1.2358817
-6.7009454 -37.283886 1.3238479
45.114967 -37.310776 1.3419091
46.194031 -37.454086 1.4
46.377419 -37.336708 1.3837947
46.632805 -37.335304 1.3189023
51.434822 -37.355286 1.2692481
52.013191 -37.276917 1.2390692
55.539951 -37.214512 1.2396088
67.60498 -37.456623 1.2025719
-23.483973 -36.925571 1.3402615
-6.9781208 -36.925861 1.3083942
-6.8462539 -37.054916 1.3592069
46.345287 -37.092251 1.3308796
46.623623 -37.090755 1.4690752
55.446487 -37.092533 1.2498994
55.570709 -36.999008 1.391425
-23.73114 -36.699509 1.4
-23.497789 -36.7966 1.3817792
-23.217678 -36.84301 1.2971077
-21.201857 -36.674076 1.4020987
-7.1047044 -36.63871 1.288644
-6.6761475 -36.610416 1.4755626
46.070675 -36.824036 1.4
46.274284 -36.776875 1.3932937
55.203369 -36.799908 1.2532068
61.914787 -36.747128 1.2165661
46.328594 -36.505154 1.4
48.817017 -36.431465 1.2191989
55.268707 -36.568779 1.2322297
-10.296646 -36.068844 1.2939043
-8.5453892 -36.087189 1.3330956
-7.2089581 -36.07362 1.4418854
46.323608 -36.218224 1.4213952
48.047699 -36.042904 1.3907306
48.320198 -36.256821 1.4802743
49.292976 -36.126728 1.361096
-21.936241 -35.822556 1.3336036
-10.242854 -35.878944 1.3925161
-10.112392 -35.848392 1.3825068
-9.7452574 -35.918064 1.4211296
-9.3974428 -35.897976 1.3626369
-9.1461287 -35.841316 1.399945
-8.5851612 -35.936146 1.3202289
-7.919014 -35.935471 1.3116535
-7.2430358 -35.919128 1.3186975
-7.1302986 -35.884224 1.4174309
46.433838 -35.808071 1.4
46.59507 -35.71167 1.4089129
47.031952 -35.77433 1.3293686
47.280624 -35.779449 1.3603368
47.439362 -35.803883 1.4
47.994366 -35.703152 1.4
48.047989 -35.758266 1.3226639
56.463718 -35.710964 1.3936169
45.869587 -35.6376 1.2838254
46.657318 -35.598076 1.342239
46.966228 -35.644188 1.2713557
47.177181 -35.469307 1.4249355
48.056835 -35.589741 1.3196706
-22.988066 -35.29108 1.2934171
-22.653843 -35.18325 1.347795
46.88213 -35.390129 1.2817048
47.885944 -35.363461 1.4
48.163868 -35.229485 1.3719784
48.324863 -35.264084 1.3387175
-22.631598 -34.993679 1.3937221
-22.489182 -35.043896 1.3429381
47.673141 -34.949272 1.4
48.129189 -34.956932 1.40374
39.184738 -34.501068 1.2523062
46.327946 -34.559494 1.2042874
47.915977 -34.617695 1.4
31.671846 -34.312275 1.3843688
32.587063 -33.4641 1.2875726
51.4048 -33.301949 1.2955
51.68248 -33.54789 1.2832053
32.452881 -33.148262 1.2724762
51.451675 -33.077377 1.2771565
54.99646 -33.124115 1.2699287
54.638153 -32.827579 1.3559911
54.976994 -32.782951 1.2665402
55.200497 -32.77 1.2738601
31.68144 -32.52718 1.3632646
55.101368 -32.685772 1.2549382
67.02182 -32.572159 1.2406769
-52.570095 -32.187557 1.2540569
31.723661 -32.21497 1.3921672
31.861208 -32.173855 1.3548473
67.325562 -32.142597 1.2368584
31.755157 -31.976362 1.2623391
32.017925 -31.928894 1.3810978
57.8167 -31.859459 1.3349539
57.98164 -31.840807 1.3820498
-52.468887 -31.660227 1.2580762
44.888985 -30.605661 1.4925301
55.77248 -30.620287 1.4904243
45.295895 -30.469883 1.4115896
45.423779 -30.346466 1.3377974
46.059517 -30.536366 1.2938565
55.657127 -30.531139 1.4916217
42.791855 -30.018829 1.2274383
45.43578 -30.14924 1.2881442
45.498665 -29.422548 1.3417267
45.758175 -29.658705 1.2080854
46.199715 -29.464039 1.2885092
50.585846 -29.557981 1.3290246
50.84005 -29.459106 1.2950598
51.076683 -29.685322 1.2503878
46.124382 -29.230484 1.2183938
50.861031 -29.195316 1.3869048
55.148197 -29.202194 1.2998383
55.179367 -29.076059 1.3724062
58.724098 -28.720913 1.2324039
62.85202 -28.675797 1.236877
67.112808 -27.998131 1.2387671
55.374584 -27.631239 1.3418971
55.721222 -27.702971 1.3927178
58.847458 -27.60964 1.4192773
59.181313 -27.673363 1.2324365
62.640823 -27.689302 1.252355
67.44165 -27.66748 1.3286431
55.385704 -27.548336 1.2805917
67.376602 -27.453396 1.2493972
-49.847385 -25.106506 1.3046212
-49.767235 -24.872932 1.4540762
-42.40992 -24.686924 1.2864233
-42.358334 -24.574514 1.2022117
-42.283493 -24.533976 1.2685984
-22.633469 -24.491402 1.431603
-42.003883 -24.216396 1.4243946
-34.817902 -24.13229 1.4130344
-34.61557 -24.086561 1.2480465
-34.474636 -24.0308 1.2074819
-24.093758 -24.086525 1.4012077
-34.56839 -23.868908 1.3423852
-34.370743 -23.785078 1.3207517
-34.333443 -23.442135 1.4319737
-26.724085 -23.590675 1.4089293
-26.45488 -23.534622 1.315949
-24.424526 -23.518724 1.3855591
-24.139294 -23.472958 1.3439411
-23.981277 -23.406567 1.3633496
-23.667013 -23.432255 1.364938
-26.492901 -23.303923 1.4111903
-26.362745 -23.325947 1.2174351
-24.347456 -23.132355 1.4
-24.176468 -23.297445 1.3389039
-23.902584 -23.123507 1.379178
-23.623562 -23.328728 1.4125104
-26.226444 -23.093515 1.4313173
-26.047155 -22.970997 1.3734689
-23.927601 -23.068371 1.3866988
-23.698021 -22.892347 1.3742851
-25.926619 -22.794146 1.3752756
-10.379953 -22.277206 1.3267683
-10.074127 -22.465782 1.3799608
-9.3734064 -22.265718 1.3239613
-9.0929413 -22.270315 1.3606967
-8.7670612 -22.287319 1.3716671
-8.5227337 -22.240139 1.3834904
-7.8598051 -22.379307 1.404206
59.057144 -22.340433 1.4286671
-11.168743 -21.911278 1.3311341
-10.079426 -22.166916 1.3571544
-9.2535019 -22.159243 1.420326
-8.5206671 -22.086962 1.3915633
-8.3474979 -22.046926 1.3463343
-7.7977233 -22.147861 1.267095
44.58625 -22.026459 1.3276885
59.027584 -22.149509 1.2385808
-10.847017 -21.872313 1.3612471
-8.1972036 -21.754675 1.3607551
-8.0604048 -21.738384 1.3599846
-9.100071 -21.410158 1.3156008
-8.8492279 -21.502308 1.3531151
-8.645112 -21.538622 1.2438927
49.908806 -21.469439 1.4373214
58.434631 -21.526863 1.4148524
-48.791969 -21.117361 1.3916206
-9.4221592 -21.032867 1.4577298
-9.1071882 -21.162981 1.3536743
-8.9125738 -21.191877 1.3112255
-7.8368998 -21.136553 1.2687387
-7.7460308 -21.122131 1.3584459
45.01918 -21.081133 1.2309664
57.762489 -21.137444 1.4476545
58.670612 -21.043705 1.2962953
-55.594597 -20.920101 1.232723
-52.554756 -20.723503 1.2175344
-52.155743 -20.70182 1.2477851
-9.3751144 -20.814463 1.4190471
-9.1101637 -20.802872 1.3832554
-7.6519208 -20.830198 1.3553815
44.945435 -20.926704 1.2459369
45.098171 -20.788637 1.354109
58.726692 -20.976379 1.3868362
-50.167393 -20.493172 1.2193204
-9.3784904 -20.491888 1.3851357
-9.2510939 -20.652626 1.4191703
-7.9178295 -20.586575 1.2519267
-7.6279297 -20.698942 1.3687204
31.526865 -20.541334 1.4992104
45.305698 -20.620642 1.3659139
50.356926 -20.512751 1.2877439
50.444099 -20.538204 1.3330231
58.701626 -20.463999 1.3421259
-48.225662 -20.39596 1.2201167
-44.491516 -20.304768 1.3758605
-36.49419 -20.248308 1.3992462
-25.395741 -20.102886 1.4405704
-25.168119 -20.136389 1.392272
-9.7412853 -20.170532 1.3496649
-9.3956985 -20.345551 1.3816261
-9.1695414 -20.291018 1.3682559
-7.6546049 -20.220047 1.330873
31.368473 -20.272369 1.3439536
31.616936 -20.148251 1.3348488
53.197948 -20.220007 1.3620598
53.575966 -20.138908 1.3145864
54.092064 -20.103086 1.3325232
58.701477 -20.321712 1.3577806
-44.251144 -20.047026 1.349103
-43.979488 -19.840387 1.3681015
-40.535999 -20.016684 1.2128204
-25.587482 -20.050547 1.4003298
-24.806847 -19.829618 1.3973819
-24.432972 -19.941145 1.3847691
-23.842476 -19.836697 1.2711362
-11.379614 -19.844337 1.3329079
-9.9140892 -20.033871 1.4
-9.6562519 -19.878458 1.4
-9.5487547 -19.913145 1.3709459
-9.0949593 -19.809502 1.4058485
31.678228 -19.965422 1.3146293
31.881815 -19.985167 1.305454
53.180164 -20.046886 1.2841187
54.218475 -19.957817 1.305094
58.498981 -19.869568 1.4468997
58.882069 -19.927521 1.4353405
62.746494 -19.948599 1.2594572
-36.909077 -19.600266 1.2148434
-36.814144 -19.719316 1.286625
-32.78698 -19.562368 1.4
-32.337723 -19.507206 1.406446
-24.70327 -19.70785 1.3891309
-24.530054 -19.666233 1.3695488
-23.824881 -19.63777 1.2940117
-9.6524696 -19.721052 1.4009322
-9.0788918 -19.562859 1.4
-8.7576132 -19.589794 1.4
-7.6789126 -19.586855 1.370595
-7.3869705 -19.691137 1.3046582
31.650068 -19.705061 1.4082829
54.408447 -19.799084 1.378668
61.95417 -19.662081 1.2479757
-33.030464 -19.314247 1.4105291
-32.865822 -19.379385 1.3309641
-32.647408 -19.372669 1.3560517
-24.574816 -19.331606 1.3916807
-23.811272 -19.368679 1.3878081
-23.534134 -19.225111 1.3741589
-11.550798 -19.252365 1.4
-11.22048 -19.271656 1.3420284
-7.7196822 -19.43103 1.3713212
31.737213 -19.361029 1.2236216
53.530544 -19.310959 1.2914469
66.56321 -19.466442 1.2844707
66.62854 -19.257017 1.2653382
-29.43498 -18.938074 1.2907443
-29.347975 -19.094807 1.4
-23.627014 -19.064711 1.399871
-11.554658 -19.108915 1.4
-11.164586 -18.994404 1.4
-8.8938894 -18.91156 1.4001433
-7.9063492 -19.086172 1.4146663
53.291077 -18.963861 1.2544689
53.47501 -19.120924 1.2980351
-29.465155 -18.86351 1.404659
-29.333399 -18.822292 1.3397522
-26.27021 -18.785824 1.4821485
-24.667337 -18.608973 1.2523386
-23.549261 -18.759932 1.3338116
-11.242417 -18.89893 1.4
-9.3604259 -18.606813 1.4708664
-8.7486792 -18.668463 1.4764404
-8.5154619 -18.805511 1.363533
-8.1709557 -18.688877 1.3706421
-7.9210968 -18.831137 1.2907931
37.282612 -18.893646 1.2474798
53.488842 -18.648594 1.2206882
-29.280704 -18.440922 1.3599498
-26.886778 -18.447727 1.3960142
-26.490961 -18.405905 1.3005654
-24.634216 -18.436289 1.4
-24.513699 -18.565443 1.3146112
-9.1620235 -18.351971 1.2731085
-8.908534 -18.473562 1.203584
-8.5842648 -18.45702 1.3934206
-8.3015213 -18.521061 1.3710039
44.66806 -18.422281 1.3755964
50.55159 -18.326571 1.2538927
-26.598505 -18.15391 1.272782
-24.750118 -18.189358 1.4
-10.53827 -18.18647 1.3272314
-10.377853 -18.092102 1.3689177
-10.125608 -18.193382 1.4015256
-9.3108759 -18.207478 1.4735892
-8.3005257 -18.259632 1.3568072
43.95718 -18.053181 1.4093649
44.148361 -18.183237 1.4363011
-26.511332 -17.797678 1.201081
-26.376564 -17.933666 1.3041053
-25.339386 -17.847111 1.4230098
-10.322665 -17.936213 1.367027
-10.119173 -17.892271 1.358191
-9.4079571 -17.994888 1.4849632
-8.8275595 -17.875109 1.4768199
43.862026 -17.88579 1.4364356
44.618141 -17.783468 1.4268355
-55.78186 -17.475677 1.267608
-26.112169 -17.66073 1.4706907
-52.830029 -17.241426 1.2033151
-52.369209 -17.258169 1.2427788
-50.384781 -17.141487 1.2073334
-25.205549 -17.131802 1.4944541
-23.532085 -17.398975 1.4965471
44.556915 -17.224977 1.4101287
44.843616 -17.18549 1.3696574
-48.392372 -17.048145 1.2705728
-24.000896 -16.880424 1.399918
44.605297 -16.967978 1.383806
44.820305 -16.96961 1.3412133
50.340931 -16.839043 1.2912685
54.846165 -16.923948 1.3919622
54.987732 -17.05452 1.4386581
-44.545406 -16.757442 1.2722657
44.434792 -16.604393 1.4
50.274033 -16.749336 1.3347852
50.414623 -16.676825 1.3523798
54.475723 -16.649641 1.2810971
54.691345 -16.651787 1.3063462
58.347618 -16.704893 1.3806001
-40.88483 -16.373306 1.3529842
-40.70488 -16.295788 1.3570322
44.377674 -16.407494 1.4
-36.973633 -15.997748 1.2688097
-36.87249 -16.148811 1.2316797
-33.401947 -16.076265 1.4738023
61.759888 -16.055622 1.2386016
-33.292297 -15.876805 1.3047019
36.682331 -15.653045 1.474875
62.304352 -15.894176 1.3428365
-29.72928 -15.30808 1.4222316
-29.649734 -15.397725 1.270818
-24.69191 -15.404975 1.3423624
-24.455303 -15.476921 1.2308613
66.649437 -15.431062 1.2278694
-24.742598 -15.147994 1.3455801
-24.439945 -15.035984 1.3204482
-23.392982 -15.27406 1.3812689
54.161072 -15.146462 1.4092364
54.21817 -14.843823 1.3759971
43.198261 -14.422499 1.3566631
53.528072 -14.587033 1.3509516
54.339489 -14.465431 1.2630707
43.264778 -14.159057 1.3900321
43.539574 -14.217182 1.4137975
49.883289 -14.170145 1.3868051
43.228539 -14.011749 1.3410645
49.920532 -14.07058 1.4071765
43.009651 -13.622803 1.414629
43.143719 -13.434258 1.4104331
43.062275 -13.144135 1.3474468
43.617222 -13.069072 1.3907441
43.939774 -12.91373 1.3394134
50.149326 -12.922141 1.3876871
42.530861 -12.865392 1.442084
43.909767 -12.755854 1.2798569
44.372597 -12.771958 1.2742543
44.454617 -12.741357 1.2298951
49.859875 -12.746811 1.4477003
50.244934 -12.758723 1.3125838
50.418446 -12.671648 1.3198466
33.757629 -12.331905 1.2687566
50.026028 -12.483705 1.2727987
50.23933 -12.5008 1.36189
35.143505 -12.049935 1.2703598
49.998711 -12.194293 1.2964739
53.75333 -12.138275 1.3273996
54.156223 -12.260395 1.3862753
54.915695 -12.200519 1.2231867
57.811111 -12.232123 1.41847
58.038795 -12.002605 1.4188423
43.384735 -11.898941 1.3229232
43.719257 -11.785667 1.3704387
50.184807 -11.900327 1.3413348
53.950218 -11.900861 1.3377893
54.168007 -11.720155 1.3716689
57.836506 -11.754067 1.3246516
23.324461 -11.485538 1.4025103
23.439528 -11.463905 1.403407
34.247604 -11.434224 1.274615
53.96442 -11.568599 1.3632078
54.458485 -11.482567 1.3317515
54.634697 -11.677118 1.4189297
57.872646 -11.618599 1.3857329
58.059978 -11.590478 1.2856332
61.583782 -11.565568 1.3026863
66.186615 -11.422153 1.3811053
-25.967464 -11.236681 1.4100688
23.310104 -11.315778 1.4301749
23.432272 -11.325281 1.4441371
40.031948 -11.246281 1.2779305
54.032837 -11.188035 1.3632754
54.559032 -11.337601 1.3407744
58.011921 -11.363987 1.3607833
61.739082 -11.282406 1.2612226
61.849503 -11.305462 1.3470417
66.140266 -11.145984 1.3469635
70.22332 -11.186903 1.2945402
-26.064901 -11.018566 1.4103855
-23.114819 -11.068689 1.4274561
66.107475 -11.094483 1.2808766
70.37468 -10.940982 1.3060523
-65.391464 -10.61076 1.3264456
70.448425 -10.620428 1.2503951
70.584267 -10.69985 1.3400562
21.258053 -10.497109 1.4
65.177986 -10.409251 1.3824167
-57.672939 -10.03405 1.4462723
-26.950298 -9.9151821 1.4119408
22.204994 -10.00412 1.4743843
-49.987759 -9.6740599 1.2520751
20.958599 -9.6173286 1.4954865
21.438974 -9.6138287 1.3159631
22.526924 -9.6713619 1.4
66.226593 -9.8453007 1.3392715
-49.993301 -9.5846109 1.2737064
21.400141 -9.4642658 1.3272477
22.67103 -9.4910469 1.3532066
23.015326 -9.4124832 1.3072869
-40.941494 -9.0260592 1.2999511
-28.007748 -9.1132727 1.3178558
21.436611 -9.2275391 1.3450148
22.937143 -9.0892277 1.3932452
23.163849 -9.2650099 1.2505921
-40.877705 -8.9925365 1.3052554
-29.318987 -8.9883537 1.3839225
-13.987357 -8.7368469 1.3476653
-32.810223 -8.5138426 1.3606046
-24.662933 -8.1371794 1.4039043
-24.576853 -8.1649723 1.317502
21.705147 -7.9153113 1.3805076
22.192909 -8.0613403 1.4
22.232433 -7.9457307 1.4
43.934238 -7.9222412 1.220233
44.104591 -7.9738922 1.2193575
22.395288 -7.6796832 1.2499077
22.71027 -7.6309276 1.4236547
22.972946 -7.6808319 1.4
76.13623 -7.7368393 1.2942784
-51.942978 -6.0669041 1.4640988
-51.041641 -5.779572 1.4641752
-59.402187 -5.5555382 1.3686287
-45.785332 -5.4912338 1.3862162
-24.498739 -5.5819526 1.4883438
-38.717224 -5.2078362 1.4380236
-38.465279 -5.129776 1.2843167
-29.316828 -5.2488999 1.3546243
-24.707901 -5.1468635 1.4787055
-23.821625 -5.2592125 1.4877806
-38.413948 -5.0954762 1.3851607
-37.030655 -5.009305 1.4705323
-36.775093 -4.9453101 1.3544402
-30.280077 -4.8487082 1.2337712
-29.259998 -5.0976124 1.4569765
-23.206268 -5.0465622 1.2295314
-0.37307689 -4.9259872 1.3889645
-0.25127709 -4.8396387 1.3513116
-49.329895 -4.6343074 1.4691777
-30.163294 -4.574944 1.3211867
-24.736906 -4.7208037 1.3198085
-24.416868 -4.660244 1.2681246
-23.484711 -4.5701327 1.4653039
-23.339338 -4.5302768 1.4825335
-23.075733 -4.5431356 1.2426015
-0.40512848 -4.719027 1.3449801
-0.26937148 -4.749455 1.3301572
-30.060781 -4.4337821 1.337186
-29.173759 -4.3056264 1.3703848
-28.997898 -4.3202562 1.3917174
-24.443989 -4.2607861 1.4204637
34.593796 -4.3427258 1.372658
-29.143219 -4.0969658 1.3668013
-28.876453 -4.1814003 1.3940977
-28.551559 -3.915535 1.4647818
-24.497965 -4.0580463 1.3801526
-24.194288 -4.103539 1.4389216
-24.554148 -3.8691194 1.4011067
-22.057638 -3.7743733 1.4
19.49008 -3.6305351 1.2836457
19.630264 -3.6453612 1.3310446
-27.234051 -3.3732338 1.4
19.385517 -3.524828 1.3501356
19.618889 -3.5504639 1.3251036
-29.511333 -3.1090322 1.3800354
42.562424 -3.0815334 1.4005625
42.653404 -3.123812 1.2976555
-44.662086 -2.8506751 1.4536418
-40.511452 -2.7332077 1.4601657
-26.540424 -2.9986367 1.4
5.2751589 -2.7633605 1.3463343
5.456677 -2.7576509 1.3789532
42.594608 -2.9303374 1.3233618
42.6856 -2.9723554 1.4279611
-42.802982 -2.4410272 1.4059515
-40.64666 -2.6305046 1.3816216
-39.429272 -2.5517304 1.4107705
-30.168694 -2.6782904 1.3712345
-25.851488 -2.4650598 1.4
-15.023641 -2.5970964 1.3999929
5.2945895 -2.6381238 1.339897
5.4747353 -2.6729231 1.2923228
13.408463 -2.432847 1.3516084
13.530933 -2.4056664 1.3443196
-35.212761 -2.3206596 1.3938395
-31.518536 -2.225934 1.3401077
-25.942095 -2.3812075 1.4
13.378558 -2.3525712 1.385058
13.544241 -2.3450513 1.3224735
53.216908 -2.1253824 1.2340186
-35.428146 -2.0890884 1.3189316
-32.141281 -2.0305958 1.396021
-31.31312 -2.0283101 1.3623081
-31.109976 -1.9547838 1.3984834
-25.716038 -1.994913 1.4
41.922737 -1.9113855 1.4428045
42.053635 -2.0107183 1.4144421
62.503876 -1.8340287 1.2517664
-33.611446 -1.7870083 1.3982077
-33.316753 -1.748251 1.3831007
-30.614079 -1.7572333 1.4939139
-30.116158 -1.5838504 1.4166156
-29.882116 -1.5486425 1.3812984
-27.371908 -1.6088563 1.3827397
-27.096998 -1.5513753 1.4318314
41.90564 -1.6647799 1.4045906
42.040329 -1.7389565 1.4186544
62.490391 -1.5840182 1.3035042
-30.038773 -1.3881273 1.4242792
-28.984093 -1.3672868 1.4209658
-26.842255 -1.4381998 1.4607108
-26.542599 -1.3479748 1.3684752
-25.023376 -1.2391688 1.2796283
-24.709736 -1.3218691 1.2838415
-24.469536 -1.2368529 1.3818351
-24.125864 -1.2497311 1.3793486
-23.522762 -1.2765883 1.3643986
41.957039 -1.4716083 1.4285409
-28.760592 -1.1229172 1.4905516
-26.960325 -1.1862674 1.4923154
-26.429708 -1.1645256 1.4028378
-24.38699 -1.0835991 1.4026141
-24.205994 -1.1699289 1.3819069
-23.558943 -1.1528733 1.2410349
-23.305761 -1.0650358 1.3862089
-23.001905 -1.0521983 1.4
41.9771 -1.0809038 1.4125422
42.249512 -1.1013036 1.4224898
-23.023262 -0.71703422 1.3966756
6.1744738 -0.61881638 1.3937942
42.475456 -0.70775342 1.440024
42.620609 -0.60350627 1.4
-23.055542 -0.44248861 1.4
42.537777 -0.38813138 1.433848
42.747868 -0.40388149 1.363485
-23.076788 -0.15724771 1.4
42.533127 -0.13132831 1.3333632
42.679661 -0.17041583 1.3533678
49.142952 -0.01710701 1.3345563
49.219074 -0.10367441 1.4466748
-23.105183 0.21021464 1.4
-23.041759 0.18322438 1.3911941
42.428467 0.093768299 1.3740152
42.714775 0.18568237 1.3968679
49.087799 0.19214319 1.3067821
-23.121536 0.45673296 1.4
-23.060442 0.35298169 1.4783448
42.532238 0.40811068 1.2906667
42.681442 0.30785581 1.3934596
49.067223 0.38691735 1.2943771
-23.141342 0.74403262 1.4
-23.030716 0.84778214 1.4479003
42.49733 0.6204741 1.342183
46.949066 0.6973055 1.2585278
49.239716 0.72574127 1.4950246
57.910774 0.87196636 1.2172744
-23.151518 0.99346596 1.3736963
-23.05583 0.93634903 1.2178119
42.748978 0.96774292 1.2560798
-23.190992 1.3605297 1.4
42.400063 1.4886093 1.2566618
48.443008 1.4106498 1.4889039
-23.2069 1.6511835 1.4
-23.222698 1.9651203 1.4028989
49.319218 1.9912548 1.4452029
50.02092 2.0754738 1.2354767
50.102242 2.0914564 1.3518013
-23.222511 2.2580869 1.3695763
49.185902 2.1360874 1.2575041
49.253033 2.3112276 1.2710725
49.533852 2.1038456 1.2375112
50.294098 2.2241306 1.2284458
-23.256115 2.5256052 1.4
-23.061789 2.5109396 1.3248645
-22.748585 2.6924264 1.3762829
-21.949749 2.5013435 1.4
-20.890926 2.5352559 1.2967743
-20.563427 2.4880414 1.3758497
-20.304712 2.5445371 1.3946286
-20.068197 2.650362 1.4
49.123299 2.5463209 1.3139243
51.964275 2.6894112 1.2825437
52.730358 2.6831336 1.2631718
53.316887 2.5831542 1.276453
53.454216 2.407156 1.2166693
57.714954 2.6700859 1.2008611
58.154575 2.6156311 1.2054849
-22.551708 2.7785051 1.2794787
-22.424299 2.8819308 1.3624772
-22.05312 2.8224983 1.3799835
-21.070601 2.8951311 1.485585
-20.923788 2.8659725 1.3412807
-19.900234 2.7002277 1.4
-19.688158 2.8504784 1.4
41.301384 2.9835317 1.2307992
41.465706 2.9556098 1.2980237
49.065193 2.8430469 1.4725769
51.29084 2.7499409 1.2846501
51.488575 2.8221321 1.2666469
53.016735 2.9169228 1.2269541
-19.622362 3.1953065 1.3524706
-19.423893 3.2436898 1.3267328
-0.94033396 3.154953 1.3373698
-0.74975932 3.1959872 1.3621514
-0.55907351 3.2370911 1.3457472
41.090912 3.1982257 1.4
41.690983 3.0357418 1.2721378
42.252941 3.051919 1.2818869
42.548748 3.1179783 1.3303065
42.758392 3.1938038 1.3454151
45.501461 3.260685 1.4503658
49.031822 3.0721045 1.4023315
49.214699 3.2296324 1.4707589
-19.619219 3.3735909 1.3954418
-19.424147 3.408308 1.3790177
-19.154385 3.5982921 1.3845706
-0.53724462 3.3558011 1.2403347
41.079094 3.4803114 1.4
41.173668 3.4247086 1.4085362
44.916794 3.4763348 1.4169799
45.153954 3.405962 1.2599195
45.508202 3.3654494 1.4183428
46.144978 3.4473467 1.3433713
46.637035 3.5850778 1.3570089
49.075199 3.4463077 1.3996031
59.800056 3.3322067 1.2571952
-19.293785 3.6258526 1.4119593
-19.072571 3.7563207 1.4034206
-18.849171 3.8310132 1.4
41.070019 3.6982431 1.4
47.114681 3.6779811 1.2532467
48.40649 3.6627312 1.3003931
7.09869 4.1794548 1.3186958
7.2794247 4.1450849 1.304346
41.048569 4.0551147 1.4
41.108604 4.1099825 1.4646254
-18.360895 4.3486271 1.3310758
-18.264311 4.3851376 1.40214
7.1186833 4.2563572 1.3149732
7.2906137 4.2798414 1.3739372
41.022995 4.3398914 1.4
-18.391306 4.529983 1.4
-17.17625 4.6542816 1.4
7.4376345 4.6142063 1.2047994
40.998325 4.6212397 1.4
-17.464552 4.9592385 1.3683386
-17.253017 4.9733911 1.3471572
-17.073105 5.0364075 1.4220648
-0.054432333 5.0750489 1.4
0.087353468 5.043098 1.4258599
40.964447 4.9274082 1.3222065
-17.739197 5.177166 1.4
-17.479303 5.1023064 1.2931628
-17.315735 5.1924586 1.4050153
-17.015043 5.1372967 1.214052
-0.10652093 5.1945057 1.3376614
0.097999096 5.2264042 1.4115999
40.987137 5.1919403 1.4226518
37.521595 5.5920601 1.438936
40.9431 5.5742826 1.4159369
-23.513544 5.7535458 1.2791345
-16.270887 5.9667983 1.4
-15.917783 5.9564357 1.4111328
37.197666 5.998374 1.4107709
37.276257 5.9844728 1.4
40.888229 5.9089642 1.4
-16.72385 6.2645693 1.4
-16.280495 6.0357256 1.4
37.436531 6.2776461 1.3119118
37.583763 6.2342081 1.3023609
38.096146 6.0801468 1.4427103
38.206757 6.114069 1.3926369
40.877438 6.2090359 1.4253529
-23.554485 6.320467 1.4367671
-16.613678 6.4624977 1.3756393
-16.458628 6.4749274 1.4422308
8.3422394 6.489295 1.3937883
37.079594 6.5253415 1.3580302
37.364098 6.4451475 1.3190892
37.604717 6.3287048 1.2099577
38.15863 6.337534 1.4440845
38.890713 6.5131884 1.3365619
40.865891 6.4211855 1.4206474
-23.569221 6.6869497 1.2618431
-16.541027 6.7394929 1.4066823
-16.435387 6.7470708 1.3193958
37.139023 6.7202482 1.3851333
37.280357 6.7217431 1.3435985
38.962902 6.7435532 1.2588094
39.048565 6.7312775 1.2624643
40.689678 6.7616014 1.2684212
-23.555756 7.1638508 1.3862748
-16.447899 7.0229449 1.3769631
-15.944671 7.1657176 1.4
-15.816792 7.1766028 1.4
36.856232 6.9914322 1.4761469
37.077496 7.0372257 1.3653879
40.434433 7.0451279 1.2668514
40.717289 7.0506992 1.2821481
-23.600367 7.3596716 1.4
-16.317837 7.2265468 1.4
-15.930857 7.261435 1.4426062
-15.788466 7.3542933 1.393874
35.36319 7.4842072 1.3105333
-15.722098 7.5947099 1.4195275
34.759449 7.7676368 1.4711488
34.997509 7.7101645 1.4396453
35.291298 7.5216522 1.4114814
35.781105 7.5554409 1.4644305
36.557178 7.6957436 1.4
-15.667704 7.9317384 1.4
34.771629 7.8695664 1.3297316
34.844391 7.9770217 1.4026242
-15.63494 8.2044544 1.3787249
-15.583931 8.3082552 1.3472134
35.259003 8.3177958 1.4
36.466732 8.1598959 1.4692472
35.166351 8.4888382 1.4
39.231625 8.5405779 1.4
-16.180031 8.9528875 1.4
-15.63078 8.9948711 1.4528108
6.8762121 8.9824266 1.4
6.9417205 8.939229 1.4
8.1306067 8.9667654 1.3760189
34.471043 8.9942856 1.3240519
34.823318 8.8440533 1.3805009
39.686954 8.76332 1.4117785
40.010811 8.8313847 1.4886236
-16.188118 9.1721773 1.4077619
-15.547948 9.0914783 1.4363425
6.8521686 9.0154371 1.4
6.9920259 9.0665112 1.3846682
8.2248287 9.070673 1.4948509
34.425743 9.159008 1.352343
34.610676 9.0740843 1.4493562
40.053162 9.068182 1.4825208
-16.206886 9.437233 1.3902458
-16.183321 9.3621082 1.4146907
-30.549568 9.7955856 1.4
-30.27956 9.8274689 1.4
-29.986591 9.8559141 1.4
-29.404745 9.8963938 1.4
-28.871815 9.8734179 1.2620518
-17.503986 9.7819443 1.4531357
-16.228939 9.7228489 1.3872842
11.076408 9.6036263 1.3467114
11.175042 9.813673 1.3465521
33.996586 9.8320665 1.3269472
39.733841 9.8059549 1.4495029
-29.114168 9.9137688 1.4
-28.823198 9.9233484 1.4
-28.549667 9.9426575 1.4
-28.28282 9.9568367 1.4
-28.014454 9.9742975 1.4
-27.734884 9.9806433 1.3605019
-26.730289 10.031971 1.3539305
-26.589842 10.070006 1.4154142
-25.209583 10.160288 1.3284788
-24.868738 10.156288 1.3120888
-16.260672 10.092803 1.4035934
11.12489 9.9277878 1.3917361
34.016205 9.9752808 1.4016107
-16.243954 10.404785 1.3686161
-16.194221 10.477869 1.2760775
32.613518 10.377649 1.3835534
39.756725 10.356696 1.2458228
-16.267262 10.588152 1.40874
-16.083704 10.696503 1.4021064
-15.741554 10.784842 1.4
-15.575285 10.794254 1.4
-15.000069 10.796213 1.2311375
-14.959169 10.787182 1.359009
32.58622 10.647038 1.3760906
32.826736 10.722339 1.3636537
33.180023 10.553775 1.3014227
39.453671 10.527991 1.4644043
-17.489901 11.013944 1.3912888
-15.410511 10.804847 1.4
-15.118898 10.842164 1.4220355
-14.86835 10.840627 1.3973536
-14.554891 10.859002 1.4144444
-14.230779 10.875339 1.4
-13.93809 10.892025 1.4
-13.616722 10.935219 1.3736525
-13.39139 10.919807 1.4094772
-13.054575 10.974025 1.3948253
-12.766346 11.005547 1.3371797
-12.453231 10.974938 1.4
-12.246445 11.027153 1.4
-11.762192 11.096516 1.4
-11.493334 11.040724 1.4
9.220376 10.956222 1.2155341
25.389236 10.936929 1.3521748
32.465435 10.941928 1.4
32.738144 10.872558 1.3775488
39.65239 10.83554 1.2854545
-16.949703 11.316828 1.4678665
-12.997557 11.113436 1.2080588
-12.224971 11.296891 1.3867656
-11.714215 11.130056 1.4
-11.469445 11.212811 1.4
-11.253625 11.23994 1.4
-10.951652 11.218116 1.4
-10.574607 11.34466 1.4
-10.473523 11.160916 1.4
9.3964186 11.228402 1.369969
9.8259974 11.286978 1.318608
32.350731 11.342672 1.4
32.492447 11.227268 1.4431221
34.128506 11.239594 1.3693045
-16.754093 11.453726 1.4571054
-12.581627 11.510734 1.4645594
-10.875641 11.456936 1.4
-10.579735 11.549988 1.4
-10.33012 11.60528 1.4
-9.0938749 11.611696 1.2461059
-8.8571186 11.488441 1.2677531
-7.7023973 11.41424 1.3673861
9.5406256 11.406603 1.4
9.8245564 11.552863 1.4206021
9.9693136 11.542424 1.4289613
32.302193 11.55444 1.4480267
-10.365078 11.891726 1.4
-10.041521 11.912798 1.4551601
-9.7315607 11.824564 1.3908335
-9.5536032 11.831598 1.4
-9.0091343 11.855414 1.3944725
-7.8057494 11.86437 1.4683378
-7.5596051 11.802097 1.4564457
22.199036 11.998678 1.3601156
22.708014 11.982619 1.3130401
32.552605 11.977783 1.4
33.06308 11.907723 1.4
40.368698 11.849997 1.4653614
47.265949 11.820023 1.3787727
-10.349825 12.042564 1.4
-8.5066109 12.093785 1.2001312
-1.5630816 12.265217 1.362918
22.06287 12.134739 1.4343703
32.219696 12.201336 1.3455395
32.536469 12.173947 1.4
32.964993 12.001328 1.4
-12.333003 12.591636 1.3831692
-8.8501987 12.572326 1.3284349
-8.5250654 12.50209 1.4025658
-8.3825474 12.591569 1.4
-1.6012195 12.350352 1.3525311
-1.4477968 12.319023 1.4
21.956013 12.410872 1.4792855
23.019281 12.487399 1.4
23.233927 12.341681 1.2376533
23.830576 12.465702 1.3425889
32.380733 12.327788 1.4184361
32.582043 12.417257 1.3770955
-18.924814 12.757267 1.4435065
-12.352118 12.847788 1.459079
-8.8497448 12.767772 1.2947248
-8.4912376 12.693318 1.4068722
-8.313858 12.645298 1.4122949
21.940182 12.820656 1.4044471
23.869097 12.735654 1.4
24.747438 12.72824 1.2562569
32.455681 12.666723 1.2961314
32.867184 12.661998 1.4833339
-10.526396 13.073604 1.3531969
-10.499527 13.043136 1.4446752
21.882517 12.918685 1.2530839
24.860672 13.097041 1.3414959
25.070042 13.088724 1.3968755
25.34869 13.148642 1.4395486
25.57579 13.003082 1.2864575
32.537323 13.113092 1.4584222
33.044361 13.04612 1.4957211
-10.554405 13.396148 1.3960717
25.059086 13.312537 1.2987173
25.290791 13.286562 1.4687507
29.088148 13.371731 1.4138508
29.278721 13.450868 1.3037059
30.075167 13.423707 1.4663682
30.458809 13.355883 1.4724162
32.518463 13.27607 1.4514627
32.728512 13.279614 1.475324
-10.530926 13.622683 1.4
27.947212 13.71032 1.4903094
28.922987 13.727631 1.3645517
29.258257 13.723933 1.3733401
29.410561 13.776098 1.3589902
30.152416 13.761177 1.364464
30.313999 13.645399 1.431293
30.676041 13.517664 1.4991785
32.403709 13.628134 1.416278
-10.598516 13.860888 1.4
-10.452754 13.971017 1.4
28.768961 13.866527 1.4543018
29.323309 13.826686 1.4728676
29.463308 13.806201 1.3450927
30.157923 13.81895 1.3158485
30.735603 13.844281 1.2577424
31.023672 14.004024 1.4036752
32.001152 13.97662 1.4240294
32.239941 13.991705 1.4742022
32.52076 13.991715 1.4006087
-10.391928 14.236643 1.3935034
6.5741978 14.285269 1.4
6.6749353 14.243338 1.4
6.937829 14.285489 1.4791701
23.661743 14.392726 1.2607397
23.734657 14.21677 1.3588631
28.712006 14.317902 1.4274485
