# .PCD v0.7 - Point Cloud Data file format
VERSION 0.7
FIELDS x y z
SIZE 4 4 4
TYPE F F F
COUNT 1 1 1
WIDTH 1478
HEIGHT 1
VIEWPOINT 0 0 0 1 0 0 0
POINTS 1478
DATA ascii
-19.202011 -59.035946 0.99723762
-17.360228 -59.217583 0.17822392
11.53278 -59.451641 0.82278979
12.944035 -58.961185 0.47198674
14.144939 -58.881046 0.39138764
41.478729 -59.301811 1.2144428
42.10326 -58.258289 1.2257942
45.287674 -58.403999 1.2375034
-24.996147 -56.535942 1.230653
-23.750372 -56.147259 1.3833601
-18.883106 -56.812515 0.64679176
-16.926823 -56.501656 0.23269053
42.280849 -57.908627 1.2294691
45.214508 -57.103321 1.2481916
-39.561703 -54.585342 0.69317752
-30.341452 -54.240345 0.46948344
-29.130327 -54.105175 0.50085282
-26.026123 -55.661625 1.4068559
-25.450512 -55.475586 1.204935
-22.799732 -54.067593 0.64052022
-21.028633 -54.874924 0.65234607
-18.939024 -55.167698 0.42527506
7.0964928 -54.069748 0.078895748
45.10722 -55.700882 1.2596005
-28.96759 -53.270294 0.56849146
-27.079012 -53.374161 0.36882001
-25.069956 -53.593185 0.5510444
-22.798948 -53.141613 0.31306773
-20.878534 -53.407391 0.49622637
-19.254086 -53.512527 0.54361928
-0.44796339 -52.119595 0.070166826
7.3719583 -53.292862 0.34558579
17.099747 -52.959728 0.80880982
-23.620384 -51.967472 0.0043396554
-0.39109799 -51.296017 0.1081013
0.30744115 -51.165562 0.62512422
24.765736 -50.069565 1.2245044
-37.246033 -49.80056 0.9747901
-10.490448 -48.191643 0.80726939
-1.2820219 -48.144569 0.13597807
0.1129837 -48.860336 0.496434
21.019543 -48.799374 0.43669313
22.012054 -48.023067 0.42752379
24.734158 -49.9296 1.2255582
-46.390915 -46.936157 0.96182227
-42.563797 -47.081627 0.61937755
-38.593052 -46.866024 0.37567699
-34.738331 -46.418926 0.80153495
-30.860155 -46.356415 0.74468565
-26.940243 -46.125576 0.96943569
-10.10661 -47.679264 0.79176056
-9.8923025 -47.576714 0.77785039
-4.068222 -46.048599 0.34298027
-3.2122068 -46.688766 0.30850574
-1.7667007 -47.646851 0.49082011
23.194126 -47.437458 0.4118948
24.724707 -46.691895 0.68798321
-30.151842 -45.376358 0.19827953
-28.535522 -45.12793 1.4310784
-27.109833 -45.653061 0.89522922
-22.667589 -44.927723 1.1181427
-21.955763 -45.505356 1.4041367
-6.1510277 -44.111118 0.30711398
-5.0199099 -45.001526 0.29476598
-3.4410756 -45.681301 0.51026696
24.838781 -44.979225 0.63507897
-43.159122 -42.440052 0.53126132
-38.997005 -42.079323 0.72239935
-35.22076 -42.066948 1.0483376
-26.153425 -42.648964 0.11821705
-25.361731 -42.699226 1.3872042
-7.2692866 -42.847881 0.39314413
-5.7681489 -43.546963 0.56435829
24.924118 -43.881302 0.41537988
27.741615 -43.327625 0.36633763
28.482904 -42.413715 0.35986871
-35.160824 -41.861134 0.94376504
-31.254856 -41.481476 0.62995857
-28.123911 -41.604279 1.4504995
-26.899912 -41.19902 0.69984263
-25.529972 -41.605946 1.2098234
-22.904434 -41.081676 0.98407137
-10.009077 -40.008987 0.14462334
-8.7683144 -40.651337 0.46242929
-7.7397432 -41.071762 0.62101859
29.454523 -41.205025 0.35070902
30.133013 -40.178116 0.34523511
-38.872284 -39.512138 0.43230078
-34.476181 -39.33271 0.55215859
-32.979736 -38.412384 0.79545617
-31.515312 -38.837067 0.48615482
-26.903715 -39.073265 0.26285917
-24.734859 -38.691269 0.38086075
-22.934404 -38.713039 0.4473317
-21.010309 -38.523762 0.26593858
-10.425653 -39.069801 0.59286088
-9.3219185 -39.264126 0.88613582
-6.9994526 -39.122211 1.231389
30.85025 -39.010849 0.33926737
-33.201447 -37.859234 1.0910242
-25.720531 -37.435062 1.2299442
-23.17021 -37.064102 1.0731055
-20.876036 -37.045082 0.39504325
-10.561565 -37.576748 0.67061538
-9.1419029 -37.323597 1.1391121
-6.8018508 -37.15292 1.3997743
31.677004 -37.289616 0.333812
32.129665 -36.285263 0.33058655
-22.675028 -35.089901 1.4599345
-20.764771 -35.746685 0.32813588
-10.227633 -35.842369 1.4629309
-9.6592922 -35.878311 1.491721
-7.2222614 -35.825951 1.6163881
31.785135 -34.203445 0.34644067
32.52174 -35.167557 0.3284809
31.650734 -32.987778 0.5956915
32.570248 -33.362514 1.3973254
-32.031925 -26.667089 0.59804291
-31.956808 -26.783363 0.60042477
-28.402721 -27.481897 0.68167502
-27.337826 -27.197058 0.54632038
-42.270687 -24.523376 1.1678624
-34.590542 -24.098457 1.2026597
-32.07198 -25.87215 0.59208143
-28.304518 -24.191147 0.65605807
-27.563076 -25.911871 0.685884
-22.600883 -24.524452 0.80904883
-21.738995 -24.308493 0.28226417
-34.508934 -23.900146 1.2046663
-26.428942 -23.511732 0.92303318
-24.17618 -23.419498 1.0393102
-22.85104 -23.421068 0.85352528
-21.7173 -23.063787 0.67240626
-10.470962 -22.189276 0.53636765
-9.0782385 -22.247093 0.82913309
-7.9165883 -22.378365 1.8110915
-21.685448 -21.844818 0.73971748
-11.189651 -21.319704 0.9082045
-8.8834476 -21.287611 1.2783873
-7.8391681 -21.628986 0.76516896
31.703644 -20.112247 1.505715
-23.814888 -19.721405 1.2834152
-11.379614 -19.844337 1.3329079
31.583803 -19.882574 1.5071678
-24.439945 -15.035984 1.3204482
-5.1954517 -12.060866 0.69097501
-4.5599189 -11.356875 0.68019873
-3.4224582 -10.39815 0.66477931
-36.786873 -5.0354919 1.3547399
-28.876453 -4.1814003 1.3940977
-24.399612 -4.0026741 1.4137989
-0.29743576 -4.8290596 1.5047592
-42.866188 -2.4155359 1.3521645
-40.705399 -2.609684 1.3593051
-39.386902 -2.4630084 1.3659018
-29.050508 -1.4249083 1.4166718
-27.335724 -1.560173 1.4224974
-24.439562 -1.0781727 1.4383368
-23.558943 -1.1528733 1.2410349
-22.373886 2.9406395 1.4806736
-21.070601 2.8951311 1.485585
-19.489965 3.3520987 1.4958676
-18.194496 4.4406853 1.5103259
-16.997776 5.0285892 1.5201542
-16.073872 7.2531433 1.542697
-15.818929 7.3797359 1.5448022
-15.334249 10.881529 1.5763477
-12.897 11.039371 1.5875847
-18.632401 -56.261669 -0.18467982
-17.035803 -56.684429 -0.18641694
-18.770781 -55.026943 -0.098544076
-22.318653 -52.03418 -0.011584997
-19.078154 -53.734024 -0.01382038
-28.11483 -50.025169 -0.19326806
-22.368677 -51.962555 -0.0092290342
-28.229553 -49.872662 -0.19291325
-27.714251 -49.653534 -0.15350731
-3.2314582 -46.887981 -0.037486695
-24.739265 -45.275284 -0.079537153
-11.700454 -45.507374 -0.22851679
-6.1504455 -44.151546 -0.053875901
-5.0759864 -45.149761 -0.095447525
23.739697 -44.286041 -0.65939319
-25.911917 -42.765812 -0.089670874
-8.076458 -42.062923 -0.14158964
-7.2249908 -43.034504 -0.067413025
-26.00267 -41.582245 -0.070696354
-25.994022 -41.648579 -0.07117933
-22.844421 -41.058533 -0.038901441
-10.057022 -40.033112 -0.098436199
-9.0036144 -40.863415 -0.097268976
-26.042892 -39.723713 -0.051576138
-25.730541 -39.180283 -0.021159947
-22.727583 -39.366222 -0.12872264
-21.386766 -38.9006 -0.036080401
-20.426708 -36.090271 -0.0059605837
-10.844207 -37.496067 -0.10369174
-20.454193 -35.697437 -0.033378311
-10.426244 -35.9454 -0.21958888
-22.717716 -24.815367 -0.0032101274
-8.1739941 -22.107615 -0.032058239
-8.001193 -21.972124 -0.04343152
-7.8265958 -21.839905 -0.054714125
4.3564005 -79.049232 0.82920867
12.656964 -76.381645 0.84404218
-2.0971498 -74.933716 0.86230767
-1.9424543 -74.997467 0.86176586
3.8562002 -75.258698 0.85680699
4.0446558 -75.16188 0.85740519
12.208337 -74.448586 0.85821909
-2.3978505 -72.973457 0.87660229
12.333456 -72.834549 0.86979139
-12.164816 -70.452789 0.89995825
12.261722 -70.75428 0.88482988
34.630951 -68.641312 0.88820279
-10.933586 -66.865753 0.92517078
11.969167 -66.960518 0.91234124
12.263331 -66.940735 0.052833557
15.106087 -66.841492 0.91153586
34.757851 -66.668503 0.90236115
38.305008 -66.403137 0.90239346
-14.019303 -64.41552 0.94447553
-13.481699 -64.71991 0.79814202
-11.487852 -65.970245 0.93192208
30.303745 -64.836258 0.91793537
-16.835899 -62.905682 0.74502826
-15.433156 -62.859241 0.71023315
11.725236 -62.862576 0.42125964
12.392831 -63.46188 0.13260055
-18.552635 -60.227962 0.84484345
-17.751024 -60.610722 0.82697016
11.609604 -61.456352 0.19202913
12.09419 -60.633392 0.20152184
-24.951523 -59.337135 0.9868927
-22.826614 -59.102459 1.235791
-20.549406 -58.923351 1.1612
-19.132347 -58.851898 0.99372476
-17.325693 -58.383347 0.10904077
11.777501 -59.644684 0.47450423
12.199262 -59.245831 0.96784866
-25.287285 -56.366673 1.3219101
-23.584202 -56.478695 1.4602846
-19.03096 -56.807854 0.73272836
-17.146257 -56.702187 0.19944704
-49.05188 -54.964329 1.0312058
-39.452412 -54.544357 0.67963535
-30.870678 -54.276043 0.49747768
-28.895239 -54.103935 0.53517127
-26.799566 -54.255531 0.67011374
-24.843035 -54.828537 0.9646371
-22.809654 -54.412514 0.73707676
-21.240103 -54.883442 0.62269777
-19.051088 -55.267597 0.51807201
-28.875406 -52.96645 0.30080795
-27.122122 -53.423141 0.32900855
-24.88205 -53.050465 0.75383526
-22.979164 -53.780933 0.52826458
-20.875053 -53.071255 0.34270319
-19.335714 -53.439407 0.51432931
-0.39468288 -52.023571 0.21013029
7.8796759 -53.515144 0.43187043
17.152842 -52.996155 1.0102869
-22.10811 -51.969696 0.0011131763
-21.294655 -51.971336 0.032956421
-0.21476851 -51.691158 0.21681857
0.42287526 -51.268166 0.51932162
24.716404 -50.029552 1.0276674
-28.20052 -49.691105 0.22209144
-27.521599 -49.688713 0.72350907
20.187302 -48.6688 0.24135816
24.78521 -49.906342 1.0285194
-53.899399 -47.711285 1.0860772
-49.916496 -47.353519 1.0865448
-46.192322 -47.773693 0.29310179
-42.44252 -47.042755 0.73519796
-34.745159 -46.407806 1.0103614
-33.297005 -46.332466 1.5758114
-31.018284 -46.278053 1.0213706
-26.841152 -46.147652 0.91112161
-25.916279 -46.27364 0.095096245
-12.348844 -46.039215 0.91517884
-4.1179981 -46.035858 0.20122883
-3.3473265 -46.492382 0.42733434
21.098572 -47.347069 0.23696616
22.636818 -46.359077 0.21270943
-35.128624 -45.551182 1.0916984
-30.471336 -45.572044 0.23969185
-28.512781 -45.023312 1.3596321
-26.300743 -45.101337 0.19892319
-24.397793 -44.367554 1.1877555
-22.777287 -44.81839 1.1756638
-21.946661 -45.488483 1.4073424
-12.181914 -45.843494 0.73083198
-11.731982 -45.554489 0.80136704
-6.1519556 -44.167461 0.35259056
-5.1084795 -45.114212 0.30579039
23.702375 -45.132294 0.20102523
24.945393 -44.780491 0.89119357
-26.417919 -43.048672 0.16084333
-25.423201 -42.66391 1.3992447
-23.156326 -43.50642 1.5009745
-7.321269 -42.830231 0.35895965
-26.998978 -41.14856 0.35714602
-25.667643 -41.611977 1.2934191
-22.700977 -40.93837 1.2434767
-21.897991 -41.226154 1.1158688
-10.04005 -40.035774 0.072495602
-8.8156652 -40.74337 0.46049878
-7.8047104 -40.803741 0.61392856
-41.134377 -38.46896 1.1459523
-32.144348 -39.4011 0.24821664
-28.374544 -39.387421 0.077813506
-26.993063 -38.989376 0.35752058
-24.436769 -38.913593 0.2238863
-22.744062 -38.969315 0.54635179
-20.943558 -38.471603 0.30097473
-10.286146 -38.723812 0.68575275
-9.3222322 -39.099869 0.91283298
-7.043014 -39.447819 1.2682114
-5.9978247 -38.831825 1.6234128
-33.145615 -37.8596 1.2392679
-25.595528 -37.366951 1.13284
-23.273554 -36.863869 1.2114737
-20.782413 -37.000305 0.37313542
-10.465704 -37.508728 0.58772659
-9.1993761 -37.248859 1.006596
-7.5895944 -36.30611 1.154718
-22.473795 -35.078663 1.5551057
-20.659811 -35.723301 0.30598536
-10.193482 -35.860672 1.5105078
-9.3974428 -35.897976 1.3626369
-7.2903185 -35.91753 1.5318338
-26.705793 -33.563118 0.47505912
-33.018681 -28.039761 0.67915636
-29.117384 -28.12767 0.2881014
-32.395248 -27.167542 0.68638474
-28.563837 -27.651218 0.38470861
-27.357557 -26.96468 0.46262538
-42.285187 -24.553192 1.2469071
-40.327343 -25.486038 0.52447337
-39.870632 -25.420937 0.53333235
-34.533848 -24.085518 1.2461686
-32.247242 -25.898397 0.68159592
-26.709927 -25.141092 0.29850268
-25.0445 -24.543207 0.33072406
-22.988039 -24.447128 0.72583252
-21.77614 -24.296125 0.40544307
-34.459427 -23.850283 1.2478254
-26.420523 -23.500498 1.2461771
-24.270287 -23.497581 1.2963516
-22.853775 -23.394554 1.0351586
-21.678114 -22.875225 0.53420132
-10.287881 -22.112379 0.61809081
-9.1476088 -22.189659 0.78269982
-7.9125056 -22.246552 1.6729373
-21.397303 -21.850897 0.32901567
-12.083035 -20.472996 0.3527233
-11.121601 -21.353437 0.83376735
-8.973752 -21.518921 1.3454623
-7.7137914 -21.284136 0.89116162
-29.270767 -18.875137 1.2809486
-23.842476 -19.836697 1.2711362
-9.7382107 -19.344908 1.7512296
-33.292297 -15.876805 1.3047019
-24.899839 -15.226811 1.093423
-4.1897931 -11.083844 0.62327576
-3.522543 -10.633458 0.61147857
-40.943779 -9.0145617 1.3582423
-32.958134 -8.0857124 0.49009824
-24.620779 -8.2582636 1.0941995
-2.3395605 -9.8219252 0.59000969
-0.8694756 -8.9981899 0.56519318
0.4893651 -8.2300348 0.54153389
1.158638 -7.9927597 0.5316323
-45.785332 -5.4912338 1.3862162
-38.413948 -5.0954762 1.3851607
-29.030489 -4.327147 1.3857245
-24.509117 -4.1911316 1.3843074
-0.24710846 -4.8344712 1.3668013
-40.587921 -2.6513252 1.4039379
-39.415352 -2.5530977 1.4040245
5.4800048 -2.7001266 1.3791546
13.444098 -2.334486 1.3775673
19.618729 -3.5117722 1.3658035
-24.122913 -1.2394257 1.4053869
-23.548599 -1.3144195 1.4045416
6.1744738 -0.61881638 1.3937942
-20.954445 2.7543068 1.4325047
-19.463745 3.0935199 1.4341602
-18.292645 4.2985954 1.4422287
-17.489706 4.8814592 1.4460058
7.175231 4.3055744 1.4287724
-16.409246 6.3158312 1.4557759
-15.818062 7.3064399 1.4626055
-15.045486 10.904624 1.4881417
-12.773962 11.024835 1.4878037
-9.9203386 11.89735 1.492582
12.317938 -70.663071 -0.10189593
12.444382 -68.055473 -0.039395213
12.346447 -67.394043 -0.021832347
-18.234371 -60.003311 -0.12808597
-17.207232 -60.044586 -0.12232649
-18.566566 -59.248726 -0.091631889
-18.606628 -57.642746 -0.008244276
-22.367369 -46.002151 -0.078847528
-22.992863 -45.004025 -0.052965671
-13.591187 -44.269806 -0.20096183
-24.545448 -42.521824 -0.024356604
-13.134642 -43.426605 -0.054101042
-7.4921651 -42.728947 -0.079053484
-25.955576 -41.657307 -0.10411525
-22.440056 -41.189686 -0.026307954
-8.6299896 -41.332161 -0.087638222
-22.085438 -39.901173 -0.13621388
-20.287386 -38.362888 -0.052970219
-10.940701 -38.817368 -0.13510555
-20.377272 -36.998123 -0.03913448
-10.494837 -36.688187 -0.11466391
-9.8565598 -36.057182 -0.02531743
-26.254091 -34.084282 -0.033651829
-20.561218 -35.65395 -0.082760476
-10.033369 -35.72567 -0.22784488
-9.7930775 -35.896034 -0.1896937
-26.295694 -33.401455 -0.048934083
-29.022881 -28.094273 -0.043754399
4.9120564 -86.902649 0.77980542
4.5757942 -82.121277 0.8115766
4.7432599 -81.423264 0.81617308
-4.6886244 -78.557411 0.83699143
4.4255557 -78.937065 0.83272094
12.49646 -76.429382 0.84779781
-2.5845344 -75.197708 0.85886586
3.8147907 -75.191391 0.85767698
4.0755672 -75.056313 0.85852253
12.141859 -74.532867 0.86044222
-2.6727562 -72.14679 0.87911433
11.986158 -72.565613 0.87351763
12.171254 -72.778847 0.87206799
15.562195 -73.459465 0.86690247
-7.1586785 -70.079659 0.8936848
12.067657 -70.891304 0.88460481
-10.891395 -66.763107 0.9163956
-14.000971 -64.362251 0.93291444
-13.852962 -64.379257 0.93277317
12.439198 -65.635834 0.018924832
-16.828697 -62.960426 0.69714445
-15.466406 -62.788063 0.70088834
11.517065 -62.318703 0.11157477
-18.533377 -60.229328 0.77909899
-17.830656 -60.538185 0.95900947
11.613276 -61.107796 0.13752855
12.601418 -60.458549 0.54765832
-20.569124 -58.964767 0.96996987
-19.093945 -58.722313 0.84381241
-17.288284 -58.705078 0.4616394
11.828348 -59.780891 0.56004763
12.832438 -59.230755 0.42685497
-42.049698 -56.924561 0.98763037
-41.857689 -56.936333 0.98751533
-34.023399 -57.221214 0.98411947
-25.188992 -56.778214 0.985358
-23.706017 -56.088211 1.4879806
-20.063643 -56.03162 1.4534332
-19.120171 -56.577122 0.78582728
-17.223658 -56.399788 0.069550753
-56.93306 -55.818127 0.99782991
-54.615685 -55.749008 0.99784255
-52.841263 -55.598175 0.99850148
-51.282593 -55.50576 0.99881458
-49.241558 -55.205536 1.0004128
-44.743721 -55.294613 0.99895716
-35.035179 -54.488018 0.36432713
-32.856022 -54.363041 0.4049215
-31.237074 -54.31181 0.43299711
-28.985447 -54.089314 0.47374436
-27.305412 -54.02457 0.50009036
-24.164436 -55.835815 1.489612
-23.903339 -55.983639 1.4886975
-18.845125 -54.976803 0.45170325
-29.889526 -53.885628 0.78926384
-26.916508 -53.952362 0.5074324
-24.930946 -53.078876 0.41036388
-23.125212 -53.438759 0.35963163
-21.131491 -53.594166 0.63828528
-19.422228 -53.400059 1.1407112
-0.56237793 -52.034798 0.080501318
7.8802037 -53.477764 0.79060775
-18.697599 -50.595352 0.38239196
-17.959049 -50.754742 0.03175348
-0.36715019 -51.380821 0.10116709
0.3183541 -51.182384 0.60685205
-42.462547 -47.045185 0.3484942
-34.754829 -46.469845 0.7885223
-30.854504 -46.477932 0.81427169
-29.946247 -46.817619 0.17210865
-26.877043 -46.446941 0.57724559
-30.038883 -45.736916 0.2005471
-28.563702 -45.328716 1.294172
-27.17766 -45.629662 0.93026501
-25.04711 -44.728142 0.70212287
-22.946394 -44.807549 1.0891784
-21.940273 -45.498352 1.3319902
-6.1807804 -44.187317 0.28599605
-30.745975 -42.489639 0.25125054
-26.18886 -42.562016 0.14098147
-24.204865 -43.997459 1.3604109
-23.344776 -43.989269 1.3438199
-13.143847 -43.294182 0.77222413
-8.0320492 -42.020252 0.3853125
-7.36693 -42.809025 0.33842486
-35.179665 -41.871933 1.0012701
-31.293177 -41.584602 0.94580501
-28.247051 -41.664036 1.4381719
-26.889221 -41.119343 0.57670546
-25.692932 -41.590488 1.3816487
-22.830984 -40.979233 1.1991459
-8.6277475 -40.943558 0.51758802
-7.8607736 -40.786419 0.79316741
-33.242935 -38.018154 1.1113101
-22.034918 -39.915516 1.3495197
-20.841206 -38.436668 0.39799067
-10.526824 -38.662025 0.57458025
-9.0556612 -38.717812 1.0833193
-6.9657974 -39.689594 1.2272323
-33.165539 -37.926834 0.96207094
-25.697584 -37.377323 1.2627991
-23.312521 -36.845493 1.1943842
-20.829788 -37.002426 0.38959736
-10.428405 -37.223583 0.56558859
-9.3505173 -36.77581 0.83520067
-7.1047044 -36.63871 1.288644
-26.487852 -34.302212 0.41263315
-22.6054 -35.07243 1.5105217
-20.839186 -35.719501 0.33695343
-10.228816 -35.882339 1.4654511
-9.1190987 -35.89159 0.77842563
-7.0933361 -35.859707 1.566532
-26.465384 -33.496712 0.35584655
-32.376995 -27.387362 0.6959902
-31.978241 -26.661751 0.70099401
-28.448336 -27.555149 0.54616755
-27.388113 -26.929209 0.53584081
-42.358334 -24.574514 1.2022117
-28.503025 -24.251385 0.75008208
-26.899727 -25.02491 0.40869775
-24.833363 -24.47238 0.42132294
-22.797642 -24.55456 0.34975433
-21.577692 -24.49382 0.30069304
23.747108 -25.403982 0.27281281
-28.179611 -23.947914 0.75298977
-26.382648 -23.479563 1.1453656
-24.168888 -23.429993 1.3045914
-22.754423 -23.155195 0.97277164
-21.649677 -23.012659 0.54831374
-10.468194 -22.241133 0.4329505
-9.1547146 -22.263283 0.653359
-7.8287177 -22.217878 1.5807706
-25.571117 -20.239769 1.7030954
-21.769279 -21.744789 0.41506287
-11.2112 -21.318493 0.7432487
-9.0077906 -21.431484 1.2193357
-7.7470999 -21.316673 0.89495176
31.750166 -20.136606 1.2173876
-29.421507 -19.008156 0.68368113
-24.665201 -19.435637 1.6970215
-23.510689 -18.768677 1.670262
-11.206777 -19.312817 1.3430922
-9.639143 -18.935205 1.6633158
31.831427 -19.925159 1.2187741
-37.040619 -16.0637 0.53163064
-8.7116966 -17.838221 1.7002267
-24.855913 -15.130733 0.80132449
-25.095894 -13.943798 0.072861671
33.757629 -12.331905 1.2687566
35.143505 -12.049935 1.2703598
-2.8034661 -10.138669 0.61716169
34.247604 -11.434224 1.274615
-40.877705 -8.9925365 1.3052554
-24.607157 -8.2443638 1.0693249
-2.2269993 -9.7361193 0.60594815
-0.9952215 -9.0209532 0.583691
0.38354874 -8.2504692 0.55869675
23.09775 -9.3921757 1.2903008
-24.90102 -7.7105484 0.58381748
1.1135111 -7.933938 0.54649055
-29.058176 -4.3638802 1.333676
-24.501171 -4.1021652 1.3345351
-0.21990108 -4.8505402 1.3249024
5.5100555 -2.7248402 1.3378965
13.450855 -2.361227 1.3387804
19.643282 -3.5452957 1.3297375
-24.128815 -1.2600365 1.3533103
-23.456026 -1.2925546 1.1079934
-22.05312 2.8224983 1.3799835
-20.911785 2.7220502 1.1902554
-19.154385 3.5982921 1.3845706
-18.240423 4.4372344 1.389958
-17.215155 4.9787765 1.3933519
-16.470545 6.510685 1.4033672
-15.753676 7.4652467 1.4095594
-14.789393 10.917035 1.4322637
-12.997557 11.113436 1.2080588
-9.7052402 11.902186 1.4378185
-8.5021515 12.703898 1.4429035
-7.5011544 -70.089737 -0.018715262
-18.657829 -56.722137 -0.10628271
-17.054405 -57.279381 -0.12965119
-18.732813 -55.62949 -0.047805149
-24.455921 -46.264687 -0.023468304
-23.261644 -42.309845 -0.0060927668
25.210209 -43.071522 -0.92592525
-14.397153 -41.125038 -0.16093515
-13.635771 -41.013039 -0.15108083
-10.968569 -38.486046 -0.17926764
-20.378551 -37.074936 -0.027904568
-10.613029 -37.113125 -0.039905984
-9.86096 -36.095367 -0.040558681
-22.76828 -35.399391 -0.024787784
-21.436647 -35.327324 -0.084836483
-10.081883 -35.873451 -0.24343249
-9.2951241 -35.835945 -0.13813895
-6.9256859 -35.883492 -0.24955907
-27.792038 -27.928589 -0.1084443
-26.439072 -25.024473 -0.11731527
-22.109034 -24.732523 -0.15057726
-21.443653 -24.548809 -0.12032686
-23.597551 -15.639412 -0.099429667
4.3465762 -79.005257 0.73261428
-2.1172528 -74.938454 0.78170526
3.9440918 -75.177704 0.76462734
4.0959988 -75.131378 0.76462322
12.290901 -74.901535 0.74601632
-2.4515371 -72.139061 0.80521858
12.26597 -72.992569 0.76154345
-8.1712217 -70.13781 0.8357175
-7.3030205 -70.072403 0.83407873
-4.6050239 -70.33522 0.82521075
-2.4333172 -71.511482 0.81025726
12.219036 -71.058174 0.77733159
-3.6557455 -68.955902 0.83401382
-16.704775 -62.961651 0.91516751
-15.73024 -62.604443 0.9156273
-18.561325 -60.271862 0.81009227
-17.846899 -60.271832 0.93981099
-20.659662 -58.932003 0.95769083
-19.021919 -58.813007 0.73037869
-17.579033 -58.953114 0.36635873
-34.144505 -57.250698 1.0049932
-33.824104 -57.366066 1.0032582
-25.171669 -56.706841 0.98698717
-19.341745 -56.91021 0.74973226
-59.146473 -55.767319 1.0794591
-39.377674 -54.508797 1.040277
-32.335777 -54.338253 0.39614794
-31.32427 -54.304733 0.40970764
-28.908178 -54.116783 0.44287711
-26.08202 -54.018059 0.47427124
-18.922066 -54.555489 0.38060981
-26.974854 -53.963772 0.46722627
-24.94475 -53.889282 0.48773867
-22.955376 -53.77586 0.50591308
-20.943174 -53.501366 0.60894185
-19.351072 -53.46899 0.64956272
-10.229989 -52.93961 0.32334584
-9.7494011 -53.029999 0.42457265
-45.610092 -48.520935 0.30740589
-46.287403 -47.029388 1.1181279
-42.44117 -47.04142 0.39268872
-34.711143 -46.375534 0.91048932
-31.224094 -46.289997 1.3755535
-26.53356 -46.360538 0.47253639
-28.377575 -45.511322 1.5040812
-26.829594 -45.167423 0.46580225
-24.131557 -44.109947 1.410392
-22.954447 -44.818569 1.1257186
-21.938473 -45.50071 1.3874035
23.61829 -44.600594 0.04567058
24.751255 -44.560764 0.5898701
-50.224762 -43.495003 1.1565952
-49.981243 -43.583969 0.3021757
-46.652489 -42.804482 0.37950236
-30.591454 -43.127022 0.24806963
-26.222502 -42.150101 0.11956885
-24.218733 -43.989365 1.4109716
-23.34564 -43.224644 0.83949125
24.775986 -43.600376 0.03074399
-35.206589 -41.865013 0.87550819
-31.505859 -41.608639 0.83679295
-26.797607 -41.526306 0.96413028
-25.661278 -41.626831 1.3399391
-22.915434 -41.043278 0.909118
-14.442315 -40.81422 0.75396198
-13.67762 -40.579117 0.78127223
-41.185532 -38.545406 1.1741151
-26.877518 -38.151749 0.53316295
-25.127945 -38.489521 0.59674972
-22.024351 -39.942554 1.4123516
-20.761093 -38.367043 0.28470719
-10.556803 -38.622311 0.54887474
-9.0887957 -38.49099 1.1705265
-6.897779 -38.984554 1.3069901
-33.256447 -37.800346 1.069895
-26.592209 -36.069996 0.58611739
-25.451212 -37.105419 0.92988318
-23.30353 -36.729549 1.1528835
-20.828682 -36.890835 0.43566561
-10.407759 -37.121613 0.51117003
-9.3735514 -36.526085 0.70750356
-6.7197294 -36.900635 1.1763345
-26.597509 -34.933853 0.35712785
-24.525131 -35.717182 0.30174315
-22.72728 -35.378269 0.8860873
-20.862881 -35.655312 0.26294795
-10.209544 -35.869438 1.4649646
-8.8405972 -35.871548 0.54890484
-7.231854 -35.903439 1.2850995
-52.570095 -32.187557 1.2540569
-26.716906 -33.515732 0.31635556
32.539726 -33.33316 1.0321929
-52.468887 -31.660227 1.2580762
-47.086529 -28.429281 0.503658
-42.753113 -28.416361 0.59182096
-28.918318 -28.036669 0.15016995
-42.558681 -27.091228 0.59974247
-32.905594 -27.908319 0.33643544
-31.913139 -27.441704 0.37418962
-28.463795 -27.747389 0.42078546
-27.099289 -27.035822 0.38801959
-49.847385 -25.106506 1.3046212
-42.689789 -25.244949 0.75194454
-34.578842 -24.051332 1.2750323
-27.023857 -25.138306 0.41181827
-24.93972 -24.545746 0.31593472
-22.929689 -24.572363 0.32950619
-21.57296 -24.471579 0.25522411
-34.526718 -23.90229 1.2761096
-26.549738 -23.528412 1.008922
-24.569483 -23.271986 0.83277845
-22.855858 -23.683561 0.89206249
-21.613567 -23.117401 0.41569245
-10.449575 -22.21093 0.44624177
-9.2238312 -22.272007 0.61752337
-7.7649064 -22.196945 1.537308
-44.326721 -20.008667 1.3321304
-40.486687 -20.005817 0.63787305
-25.407421 -20.176134 1.6917063
-21.724293 -21.81209 0.41977358
-12.08881 -20.693951 0.23906067
-11.263552 -21.304174 0.71104902
-9.0702085 -21.248871 1.2275864
-7.7512441 -21.402163 0.85073018
31.726109 -20.128561 1.141198
-29.384924 -18.988262 1.7316062
-26.490961 -18.405905 1.3005654
-24.584332 -19.398195 1.4657875
-23.658466 -19.054735 1.4877822
-11.234184 -19.230494 1.3409644
-9.6054363 -18.754944 1.6261688
31.732958 -19.862423 1.143337
-40.88483 -16.373306 1.3529842
-28.547287 -17.881607 1.8057494
-26.376564 -17.933666 1.3041053
-23.707121 -16.824539 1.7581619
-8.7614155 -17.801388 1.658968
-29.644032 -15.38972 1.3328757
-24.778349 -15.287804 1.0401676
-23.390156 -15.59512 1.7894099
34.747208 -14.501787 1.1792356
36.051739 -14.290871 1.1776859
35.603748 -13.453884 1.1855854
-57.725773 -10.098396 1.4458829
-57.620106 -9.9697037 1.4466616
-50.454227 -9.1986494 0.42158371
-41.679993 -8.2932005 0.55259883
-29.318987 -8.9883537 1.3839225
-24.62281 -8.2574348 1.0571241
-14.358521 -8.8460035 0.58891976
-13.987357 -8.7368469 1.3476653
-0.051465034 -8.0190945 0.62986243
0.030524254 -8.084877 0.62953091
23.163849 -9.2650099 1.2505921
-51.942978 -6.0669041 1.4640988
-28.741341 -7.5143609 0.69704252
-27.048225 -7.3550491 0.70854509
-25.063215 -7.2734756 0.72081262
-23.208223 -7.0417967 0.7276324
0.51356906 -7.8690338 0.6201731
-51.041641 -5.779572 1.4641752
-49.329895 -4.6343074 1.4691777
-38.717224 -5.2078362 1.4380236
-29.051182 -4.3682323 1.420682
-24.472773 -4.2815537 1.4099486
-23.206268 -5.0465622 1.2295314
-15.023641 -2.5970964 1.3999929
5.447001 -2.7123947 1.3479284
13.431514 -2.3407507 1.3309958
19.677666 -3.5605271 1.3055128
-30.046837 -1.3398895 1.4477021
-28.815092 -1.3039856 1.4449164
-26.971201 -1.4989904 1.4387311
-23.257116 -1.1957744 1.196758
-23.030716 0.84778214 1.4479003
-22.474712 2.8232222 1.2442808
-20.935734 2.7923286 1.0224359
-19.444735 3.2835371 1.1657434
24.272648 4.8305645 0.089457333
-15.704751 7.5765762 1.4841131
-12.66633 11.063021 1.5047681
-10.054964 11.902161 1.5050436
-9.7349863 11.867496 1.5039636
-8.4138269 12.654405 1.5070385
-6.0283737 -72.044189 -0.09397912
-6.7673659 -70.018875 -0.03131485
-14.710901 -38.28783 -0.16773258
-13.944548 -38.297882 -0.18057594
-10.976876 -38.461052 -0.080728874
-20.390911 -37.281227 -0.043552808
-10.419384 -36.800453 -0.10631928
-9.8800135 -36.0853 -0.1404888
-7.1759367 -36.052559 -0.17497802
-24.406378 -35.537552 -0.090008542
-23.16086 -35.304588 -0.11245015
-21.203144 -35.309738 -0.086357832
-8.8304167 -35.804565 -0.072559737
-7.7875037 -35.792309 -0.082939893
-28.126915 -27.956013 -0.066498756
-26.736519 -25.037542 -0.01145196
-24.400291 -24.892458 -0.095186412
-22.799423 -24.784431 -0.060865879
-21.495102 -24.695089 -0.05178237
-21.412807 -22.258986 -0.02650385
-8.2954874 -22.171907 -0.036013246
-21.454288 -21.604557 -0.086949438
-12.124434 -20.073175 -0.049369097
-7.9477592 -21.941059 -0.07904911
-12.1224 -19.918825 -0.065482616
-24.804731 -14.98649 -0.031371444
23.493773 -11.378657 -0.56111181
4.343853 -79.007027 0.86576426
-2.2275333 -74.939911 0.87353623
-1.974184 -74.949203 0.87438202
3.8802586 -75.194817 0.89368641
4.0774269 -75.226433 0.89415526
-8.1314697 -70.132828 0.88947237
-7.1857328 -70.06897 0.89339477
-5.5844617 -70.839478 0.89321339
-13.154564 -64.996239 0.9111585
-16.61463 -62.898575 0.91491055
-18.477282 -60.368874 0.92780495
-17.817047 -60.469379 0.92941666
-19.317244 -58.758686 0.93726474
-36.803246 -56.405994 0.89217889
-34.374054 -56.410805 0.90094292
-32.915276 -56.598415 0.90477151
-30.733429 -56.298347 0.91500676
-28.77033 -56.179096 0.92304522
-25.206619 -56.46471 0.93373924
-19.0611 -56.780933 0.58975178
-16.943369 -56.380943 0.37402409
-47.18969 -55.29969 0.8631376
-44.81192 -55.173565 0.87273198
-42.657936 -55.074982 0.8813017
-41.463799 -55.048199 0.88583624
-39.524242 -55.09259 0.89251882
-36.990017 -54.884804 0.90331417
-30.91905 -55.132446 0.92338729
-27.412424 -54.00761 0.34056601
-18.701115 -54.909859 0.40873161
-1.0246067 -55.403999 1.029591
-29.898705 -53.912415 0.93655777
-26.733131 -53.938309 0.35211667
-24.995275 -53.91753 0.37600741
-22.990177 -53.789337 0.40369719
-20.974901 -53.677395 0.49460265
-19.427675 -53.595432 0.58494115
20.17712 -48.599922 0.24212959
24.788559 -49.929329 1.1656268
-38.664482 -46.839207 0.95972145
-34.814518 -46.462296 0.39746308
-26.970837 -46.092079 1.0079474
21.117603 -47.48164 0.24563511
22.607943 -46.490284 0.23609988
-28.039936 -45.442482 1.456872
-27.37904 -45.756203 1.2760112
-22.95425 -44.758076 1.2259295
-21.969324 -45.416756 1.400321
23.674618 -45.392548 0.23465729
24.572765 -44.717041 0.58857602
27.020245 -44.039433 0.19389296
-26.20286 -43.903381 0.23808692
-25.360643 -42.746983 1.3994604
-23.647112 -43.296707 0.2274885
24.974529 -43.801617 0.23528793
27.955103 -43.274841 0.18746209
28.036135 -42.968079 0.19025376
-27.240057 -41.354759 1.1664218
-25.656651 -41.618919 1.3925289
-22.861048 -40.992504 1.1417568
-7.8075705 -40.209366 1.1230015
-22.048819 -39.961819 1.3343984
-20.657534 -38.391811 0.25652134
-14.98231 -38.16991 0.77567577
-10.597423 -38.616344 0.61820459
-8.7506275 -38.364071 1.3222936
-6.9807649 -39.434647 1.3577693
-33.170818 -37.793545 1.2720976
-26.671858 -36.312462 0.56915188
-25.19478 -36.508656 0.71796298
-23.387341 -36.656796 1.0518756
-20.713892 -36.841591 0.34617987
-14.312161 -37.9011 0.82898855
-13.975121 -37.941986 0.63128334
-10.436019 -37.062695 0.48258981
-9.4424953 -36.400806 0.66113693
-7.197166 -36.314163 1.0296772
-62.421593 -35.580841 0.96106684
-41.952709 -34.359833 0.41973269
-26.475763 -34.855 0.33199227
-25.047613 -35.742989 0.26346618
-22.880959 -35.529644 0.50860006
-21.121849 -35.59351 0.30074507
-10.207315 -35.89431 1.5061806
-8.797369 -35.870899 0.4528653
-7.4872255 -35.871773 0.99087387
-52.398026 -32.323601 1.0226762
-32.671223 -33.64909 0.67463338
-31.869013 -33.4146 0.40416652
-28.171505 -33.094307 0.34733677
-26.662483 -33.456783 0.29672083
32.62233 -33.447376 1.321992
-52.391319 -31.540909 0.65869945
23.209669 -30.90987 0.41631776
-58.023663 -29.311407 1.0256834
-42.393398 -28.348612 0.45655355
-34.16 -28.371269 0.22908425
-33.190945 -28.237408 0.27742493
-28.908541 -28.042963 0.17368333
-42.379761 -27.743219 0.46011615
-32.51326 -27.505224 0.63909298
-31.922523 -27.687654 0.3402119
-28.396435 -27.740915 0.44691733
-27.073767 -27.085064 0.36517739
-34.544605 -24.009291 1.1519226
-26.918222 -25.107162 0.40927249
-24.908575 -24.711597 0.28020731
-22.852398 -24.581299 0.52287662
-21.601948 -24.410004 0.31271702
-34.508659 -23.882029 1.3912793
-26.511578 -23.516121 1.0434417
-24.519924 -23.330797 0.93022913
-22.782644 -23.357506 0.85730922
-21.578842 -22.9993 0.38296521
-10.46306 -22.209982 0.50528759
-9.3164539 -22.337524 0.60050404
-7.7977233 -22.147861 1.267095
-25.302656 -20.119364 1.5591596
-21.539875 -21.703691 0.31673804
-12.075702 -20.489134 0.23794298
-11.34262 -21.305672 0.67348039
-8.995863 -21.10231 1.255839
-7.8291335 -21.557276 0.71730334
31.678635 -20.112843 1.4221154
-36.899681 -19.723209 1.1766711
-32.927864 -19.478859 0.70336449
-28.969532 -18.263424 1.6509703
-24.587975 -19.353382 1.4598907
-23.501272 -19.23189 1.3862607
-11.561272 -19.584629 1.0535052
-9.4893398 -18.923794 1.5407273
-7.9276962 -18.992336 1.6124244
31.583752 -19.71657 1.4248488
-44.441116 -16.707298 1.1727659
-40.842953 -16.410906 1.188104
-24.802338 -17.137665 1.6312498
-23.652987 -16.993946 1.624488
-24.792311 -15.220131 0.96070933
-23.61997 -15.522854 1.6653037
36.682331 -15.653045 1.474875
-26.151625 -12.222532 0.64350337
-23.184368 -10.081952 0.88671207
22.987894 -10.452346 0.60299194
25.510971 -10.225977 0.41613346
26.818016 -11.377387 0.39634356
-30.414957 -8.2754974 0.65543407
-29.608862 -9.0470352 1.1340952
-24.634201 -8.2763367 1.1671852
-22.6157 -9.462019 1.0240884
21.935982 -9.7006817 0.47449255
22.46097 -8.9672556 0.6820882
25.075504 -9.913084 0.42264891
-31.503235 -7.5055714 0.62844026
-28.043251 -7.4521027 0.68260694
-27.010168 -7.3616853 0.69617987
-25.546692 -7.3356028 0.71562696
-23.207462 -6.8480635 0.7366119
18.991531 -6.4787235 0.50586963
21.00054 -7.4134998 0.47962606
-38.465279 -5.129776 1.2843167
-28.964272 -4.3074112 1.3251261
-24.378536 -4.158392 1.3428979
-22.676788 -5.2914009 0.71993089
-35.428146 -2.0890884 1.3189316
-21.153744 -3.5118122 0.7078737
13.381775 -2.328867 1.4939156
19.593061 -3.5357618 1.5070485
-24.334415 -1.0890255 1.3668914
-23.302069 -1.1953521 1.1750803
-22.988777 0.2788353 1.3823882
-22.561117 2.8068764 1.2700906
-21.035887 2.774262 1.108629
-19.382036 3.4245858 1.4198829
25.458588 2.7585049 0.96344113
-18.289906 4.4271045 1.4316243
-17.328968 5.1217031 0.96069527
-16.146307 7.11796 0.57626462
-15.921147 7.282505 1.4623789
-14.68837 10.960274 0.52235365
-13.043525 11.018197 1.3245642
-9.7739382 11.853152 1.5201422
-12.000212 12.806002 0.50094187
-10.034713 12.210474 1.5219719
-8.4539165 12.495377 1.5299116
-1.9889355 17.562757 1.5926836
-2.6054692 26.631844 1.660871
-20.397989 -36.797543 -0.061398607
-10.453283 -36.759785 -0.092050649
-9.8461018 -36.089355 -0.058961652
-26.166468 -35.45422 -0.062839925
-22.788689 -35.412727 -0.080775402
-21.128498 -35.369709 -0.078447782
-16.131424 -35.155979 -0.14930627
-15.463745 -35.159691 -0.15032396
-8.9924536 -35.795818 -0.091862455
-26.729094 -26.925322 -0.097367205
-26.814346 -25.55755 -0.11826687
-24.67944 -24.900759 -0.087714314
-23.363586 -24.810841 -0.015579998
-21.921761 -24.736023 -0.012823343
-21.301163 -23.501263 -0.028915048
-8.756835 -22.496332 -0.015897831
-7.4859805 -22.275742 -0.17677975
-21.555098 -21.069817 -0.027489543
-22.989254 -18.879967 -0.091676474
-24.140198 -15.260031 -0.10522747
-7.6202369 -70.078743 0.81898975
-10.846128 -66.756844 0.84733635
-15.49 -62.596394 0.88289118
-18.678463 -60.338768 0.90224326
-19.079071 -58.764999 0.91557389
-45.129623 -57.114105 0.93180197
-42.941658 -56.946495 0.93302643
-39.131302 -56.717216 0.93462968
-36.991062 -56.546829 0.93588179
-34.869698 -56.412029 0.93683481
-33.130562 -56.896679 0.93258822
-30.492615 -56.223297 0.9380461
-29.173857 -56.099987 0.93897229
-25.229122 -56.484005 0.93538266
-22.592697 -56.279594 0.93687874
-20.185396 -56.039925 0.93869269
-19.651707 -56.202824 0.93726981
-46.647545 -55.465965 0.94585872
-20.272173 -55.985474 0.93916035
-19.451885 -55.839058 0.94032544
-29.912634 -53.854271 0.61531663
-22.043968 -53.718475 0.34265953
-20.940035 -53.631287 0.43268576
-19.360519 -53.553955 0.5084632
17.049765 -53.094509 0.96031576
24.608231 -50.212914 0.98399818
24.660786 -49.966751 0.98607326
-38.437786 -46.980705 1.016825
-31.094662 -46.37352 1.0213116
-26.950159 -46.055355 0.52928424
-26.976294 -45.960388 1.2705424
-22.918974 -44.735912 1.2093028
-21.916687 -45.379654 1.4579519
25.060579 -45.012188 1.0278955
-23.325874 -43.976585 1.4523072
-26.183029 -41.443199 1.4584951
-25.674171 -41.656082 1.4535186
-22.782257 -40.913055 1.236816
-41.119976 -38.390057 1.0896354
-22.038544 -39.889137 1.3884828
-20.673624 -38.368023 0.32958707
-10.578948 -38.491539 0.54565257
-9.2164373 -38.239655 1.1829296
-7.3940134 -38.728664 1.3994997
-41.92173 -36.096928 0.47258285
-33.161964 -37.780994 1.0472476
-26.911261 -36.46619 0.61455524
-25.34988 -36.612835 0.80084449
-23.113346 -36.35297 0.7930786
-20.871405 -36.779213 0.46491823
-10.409328 -37.047287 0.48734999
-9.3602781 -36.349678 0.67070168
-7.4323425 -36.341717 0.70101506
-43.166702 -34.322571 0.47059232
-41.841068 -35.268402 0.48677319
-32.148205 -34.268764 0.71556103
-31.795588 -34.142208 0.59346366
-26.478237 -34.905807 0.37961701
-24.817957 -35.775536 0.26512557
-22.859137 -35.455627 0.58304542
-21.184423 -35.542274 0.24278681
-16.118713 -35.168011 0.7467593
-15.445764 -35.128796 0.79127419
-10.217953 -35.907871 1.5579963
-8.7942724 -35.879562 0.54718059
-7.7865319 -35.894558 0.27561456
22.242092 -34.057907 0.22871614
-52.466282 -32.259689 1.1424195
-32.521423 -33.69482 0.47636884
-31.543592 -33.718628 0.38892871
-28.396053 -33.074619 0.31140512
-26.840111 -33.386375 0.28393775
22.202408 -33.952469 1.1215802
-52.390846 -31.652828 0.80610639
-42.448612 -28.401525 0.55419701
-31.484749 -28.146591 0.086097799
-28.64867 -27.876764 0.22900692
-27.119223 -26.87842 0.39820001
-42.449234 -24.541748 0.99596286
-34.528549 -24.018007 1.655791
-28.486206 -24.799124 0.59168398
-26.990406 -25.285316 0.33406606
-24.984501 -24.60181 0.33845523
-22.947689 -24.540062 0.43765807
-21.606489 -24.365646 0.27169704
-34.511742 -23.889841 1.4025724
-26.343933 -23.422377 1.1730692
-24.235085 -23.331278 1.1439748
-22.939697 -23.425253 1.0719931
-21.588825 -23.073421 0.3927066
-10.423238 -22.206438 0.51643628
-9.3402882 -22.362766 0.64065135
-7.7939038 -22.284744 1.6750528
-44.290024 -20.108793 0.90024227
-25.331902 -20.145575 1.5289478
-21.621811 -21.682693 0.28533602
-12.028568 -20.300547 0.16741732
-11.318506 -21.267401 0.63731027
-9.1416388 -21.189631 1.4724225
-7.8222718 -21.608997 0.77031642
-36.712532 -19.712399 0.83119947
-32.894741 -19.418266 0.50634432
-29.426476 -18.968431 1.1583097
-26.590302 -18.135794 1.2594751
-24.552145 -19.243238 1.2493639
-23.604918 -19.200678 1.3246591
-12.019307 -19.830654 0.12141067
-11.30619 -19.419033 0.93929344
-9.3465557 -19.158787 1.5462912
-7.3506155 -19.742649 1.2442154
37.282612 -18.893646 1.2474798
-55.78186 -17.475677 1.267608
-52.757286 -17.107323 0.37535155
-48.392372 -17.048145 1.2705728
-40.726158 -16.326794 1.0200049
-24.903681 -17.478416 1.5876532
-23.666471 -17.047136 1.5806495
-9.0353727 -17.865654 1.5399783
-33.474995 -15.77212 0.52675945
-24.727617 -15.315372 1.053823
-23.590712 -15.546504 1.6211182
-65.391464 -10.61076 1.3264456
-36.092796 -11.233889 0.70479727
-35.803856 -11.345587 0.10474229
22.806749 -10.493847 0.33873793
25.169281 -10.212332 0.28814614
-41.202003 -8.7690115 0.7827177
-38.685345 -8.115366 0.64175624
-37.081142 -8.0178051 0.66866934
-33.059757 -8.4080114 0.73680305
-28.063416 -9.1780739 0.29014117
-24.644766 -8.2383232 0.83988971
21.915527 -9.2161722 0.35547578
22.518425 -8.992959 0.59268087
-37.394043 -7.9035864 0.66252404
-34.106682 -7.5991554 0.71352381
-32.786846 -7.486475 0.73243105
-31.165911 -7.3476453 0.75417548
-28.858252 -7.243989 0.7547344
-26.993868 -7.0830655 0.75299948
-25.064022 -7.1181264 0.5684765
-23.383364 -7.0726538 0.3564615
19.006241 -6.5967078 0.40757528
20.929941 -7.4744921 0.37173393
-59.402187 -5.5555382 1.3686287
-30.19986 -4.646081 1.373755
-29.152658 -4.3564782 1.3761097
-24.500216 -4.5092149 1.2146903
-23.279545 -4.5865955 0.93167925
-21.475624 -4.1645131 0.81006861
-35.212761 -2.3206596 1.3938395
-32.141281 -2.0305958 1.396021
-22.971519 -3.8489208 0.20893693
-21.50539 -3.9456062 0.23006141
19.791737 -3.7305193 1.3771124
-33.611446 -1.7870083 1.3982077
-30.030708 -1.4363651 1.4008564
-29.086678 -1.3729668 1.4013094
-26.429708 -1.1645256 1.4028378
-24.195311 -1.172582 1.4025739
-23.371244 -1.2200246 1.1453712
-23.160858 1.0948582 1.4216391
27.496704 0.48663521 0.21213311
-22.594908 2.7888737 1.3143197
-20.954649 2.6973522 1.0963417
-19.436203 3.3314912 1.0176324
-18.413427 4.3222518 1.4484892
-17.359056 5.2704797 1.4564077
-16.496096 6.5982642 1.4675494
-15.884774 7.2730618 1.4731967
-14.962174 10.869838 1.4342418
-12.979154 11.0094 1.4398214
-11.87739 11.071053 1.5049319
-9.0091343 11.855414 1.3944725
-7.6330247 11.658273 1.5095212
-8.5066109 12.093785 1.2001312
-1.208951 12.293144 1.5143223
-1.5549502 17.471846 1.5581033
-1.2035509 25.626059 1.6269609
-2.7713008 27.16316 1.640084
-22.316326 -45.82996 -0.0089081228
-20.42181 -36.966702 -0.10018497
-10.460588 -36.745926 -0.11012158
-9.8179836 -36.071968 -0.07472343
-7.2150822 -36.000111 -0.20012271
-24.079416 -35.501743 -0.13450985
-22.869274 -35.422218 -0.064521968
-21.613104 -35.432796 -0.0064554554
-8.9191637 -35.77919 -0.091697544
-7.6833196 -35.844208 -0.16129851
-26.339064 -33.118233 -0.10580303
-16.676268 -32.196079 -0.16881648
-15.530935 -32.259396 -0.1717394
-15.663775 -31.973032 -0.11752057
-25.055092 -24.94396 -0.12188685
-23.267372 -24.837481 -0.13046551
-21.306324 -24.34038 -0.089788847
-21.34963 -23.61397 -0.11997776
-10.827808 -22.282085 -0.069251068
-9.0813866 -22.553806 -0.037575603
-12.072792 -20.488417 -0.091024861
-11.717063 -21.392017 -0.011406076
-25.120461 -19.558887 -0.020970013
-24.016024 -17.701004 -0.026602238
-23.708599 -17.213398 -0.03470695
-25.543509 -14.993027 -0.0054462808
-8.2534418 -70.124969 0.80216724
-7.7966423 -70.105064 0.80187356
-5.2271934 -70.312599 0.79762375
-10.927419 -66.707863 0.83261681
-18.363064 -60.335358 0.89184374
-34.054253 -57.200211 0.93298215
-33.784508 -57.261913 0.93221146
-25.207869 -56.792618 0.92747408
18.700853 -54.867111 0.8993417
-29.909851 -53.902733 0.95565939
-20.969727 -53.356804 0.61542523
7.871398 -53.466087 0.92153245
17.130182 -53.000385 0.91608554
24.65831 -50.079029 0.93233031
2.4907589 -48.347347 0.27963141
24.709866 -49.915554 0.93360806
-38.727921 -46.676224 1.0232086
-22.7808 -44.852169 1.0140593
-21.935114 -45.09005 1.5091807
25.076029 -44.833122 0.9745658
-25.35943 -42.650291 1.5109034
-28.313982 -41.603107 1.5390618
-26.415298 -41.504074 1.2786994
-25.81793 -41.761726 1.5059347
-23.10041 -40.967327 1.3280094
-22.03331 -39.831352 1.4379497
-20.703281 -38.731236 0.42120117
-10.636312 -38.486858 0.47607166
-8.9828463 -38.207848 1.1598308
-6.5021372 -38.082886 1.06094
-41.904488 -36.537804 0.44422272
-33.221169 -37.810745 1.0897981
-26.942137 -36.632328 0.58179569
-25.432312 -36.86895 0.83509588
-23.325537 -36.799614 1.1446221
-20.634266 -36.88192 0.3117303
-10.407143 -37.047009 0.4891296
-9.1713514 -36.583157 0.72420114
-7.4052372 -36.316528 0.72409689
-41.866039 -34.979427 0.47149685
-31.69458 -34.471737 0.57225609
-26.46525 -34.948326 0.31145877
-24.923454 -35.737114 0.2613855
-22.90727 -35.651093 0.42583025
-21.210953 -35.605927 0.26884109
-10.232864 -35.903702 1.3672838
-8.7185974 -35.860703 0.41209969
-7.7379637 -35.803036 0.14639211
-52.477097 -32.326534 1.1535906
-32.682499 -33.52774 0.45086303
-31.689571 -33.693474 0.37264365
-28.303259 -33.167946 0.287139
-26.955189 -33.308666 0.3161681
-16.667582 -32.133881 0.81379336
-15.708333 -32.064625 0.84243399
-52.405552 -31.527159 0.78990781
-16.593042 -31.985085 0.2931565
-15.600314 -31.913597 0.9500438
-27.09017 -26.888859 0.37649682
-34.556686 -24.005161 1.6403345
-28.370707 -25.221205 0.59887284
-27.15971 -25.549376 0.34870276
-24.921442 -24.549072 0.46008345
-22.604845 -24.562847 0.75145715
-21.545467 -24.270437 0.35474598
-34.621792 -23.865707 1.3267672
-28.460279 -22.807533 0.60684323
-26.346876 -23.387363 1.1255114
-24.258062 -23.339361 1.2042991
-22.6574 -23.137617 0.89765602
-21.651978 -22.992477 0.41621676
-10.520541 -22.202234 0.58098376
-9.4509926 -22.353298 0.74473196
-7.8642893 -22.32922 1.5742713
-55.593487 -20.869699 1.2498485
-52.155743 -20.70182 1.2477851
-36.486629 -20.137438 1.7305161
-25.500689 -20.071413 1.4786389
-22.121237 -21.546944 0.63369817
-21.598471 -21.640017 0.27874842
-12.092539 -20.588078 0.22866954
-11.421766 -21.208046 0.70254254
-9.4222975 -21.059801 1.4370761
-7.6731334 -20.918249 1.2016655
31.686611 -20.037191 1.1695776
38.143005 -20.987206 1.1554148
-36.843231 -19.74728 1.237754
-33.031761 -19.407295 0.60113925
-29.470097 -18.909203 1.2397026
-24.485733 -19.251709 1.0685754
-23.656055 -19.04397 1.2600032
-12.075749 -19.613216 0.1899709
-11.588108 -19.526972 0.80526632
-9.3928938 -18.967474 1.5234101
-7.9399128 -19.14509 1.470064
31.719112 -19.866474 1.1709331
-44.545406 -16.757442 1.2722657
-40.780243 -16.401505 1.0670837
-34.383282 -16.754148 1.7340883
-28.468887 -16.940386 0.21727142
-25.209639 -17.217628 1.5319111
-23.532085 -17.398975 1.4965471
-10.084698 -17.393278 1.6686492
-9.6771679 -17.614765 1.6702852
-48.494499 -15.415442 0.49594384
-33.214516 -15.901266 0.92567754
-29.592213 -15.506542 0.48844618
-24.823038 -15.362421 1.0747834
-23.632349 -14.827189 1.5635257
-24.383196 -13.856888 0.68863678
-37.30175 -8.0196915 0.70101213
-32.814606 -8.5315313 1.0530955
-30.027966 -8.8979578 0.32302129
-29.455515 -9.0401211 0.90317947
-24.719893 -8.261879 0.93503582
-36.80481 -7.9317002 0.70897305
-35.017262 -7.7734179 0.73779207
-33.249012 -7.6408429 0.76505184
-30.46665 -7.5556412 0.80547392
-28.995783 -7.4622631 0.80103475
-26.928179 -7.3215384 0.73824286
-24.943941 -7.3370681 0.70029056
-23.211527 -6.9735513 0.66085595
-24.540695 -5.4815426 1.8382661
-23.078966 -5.2326827 1.1435595
-21.494297 -4.1763082 0.78047359
-31.241985 -2.0840855 1.3783011
-22.642157 -3.4754779 0.66327983
-21.3472 -3.4829514 0.49798155
-33.316753 -1.748251 1.3831007
-30.195236 -1.5892855 1.3812803
-29.882116 -1.5486425 1.3812984
-27.160589 -1.5893011 1.3782539
-24.408806 -1.2085605 1.3786054
-23.411585 -1.3096379 1.1653547
-23.076132 0.95924503 1.1847969
-22.540468 2.7893429 1.3543949
-20.985348 2.7000818 1.0989649
-19.478201 3.162482 1.0455317
-18.28924 4.2952991 1.1908506
-17.073105 5.0364075 1.4220648
-16.435825 6.6024885 1.2478882
-15.867894 7.2220416 1.190442
-17.196079 9.025301 0.66739386
-15.63078 8.9948711 1.4528108
6.9993339 9.1082363 1.4311647
-14.870937 10.858779 0.92971981
-13.00268 11.040066 0.63108075
-10.051612 11.9307 1.4711168
-9.6749229 11.877934 1.1819453
-7.8057494 11.86437 1.4683378
-8.5746737 12.325 1.4728498
-1.5940943 12.38983 1.4664155
6.9977875 15.101768 0.41294146
-1.8130865 17.524622 1.5083826
9.4262934 16.543198 1.4891946
6.0013103 19.342886 1.5153731
9.1781769 21.439138 1.5292487
-2.7091808 26.70093 1.5838845
-1.3801374 26.30023 1.5793011
-6.3832932 -70.901344 -0.30670476
-7.0085297 -36.128044 -0.057219028
-27.260723 -28.157476 -0.030286431
-16.652655 -29.143688 -0.1377617
-15.721107 -29.20224 -0.13988709
-21.384441 -22.983351 -0.096207313
-10.621412 -22.412441 -0.056914717
-21.489079 -21.546318 -0.075604245
-11.460646 -21.841515 -0.03205933
-24.49979 -19.644011 -0.023685168
-23.980276 -18.11025 -0.013205091
-12.031549 -19.551388 -0.02287885
-11.713559 -18.921019 -0.036747456
-26.029562 -17.353481 -0.04352361
-25.854492 -16.77523 -0.049234223
-23.938055 -17.556917 -0.038173113
-10.114799 -17.278748 -0.024130225
-24.648539 -15.08538 -0.022565698
-9.2385578 -15.657391 -0.004368186
-8.4811068 -70.149399 0.8596012
-7.1944618 -70.066345 0.86026466
-12.066273 -66.250244 0.88783336
-10.806942 -66.864571 0.88341683
-11.747327 -65.483566 0.89343107
-18.522402 -60.317085 0.93074709
-28.012436 -58.908127 0.94057596
-27.851149 -58.852882 0.94098556
-19.240158 -58.78392 0.94187951
-25.088299 -56.900379 0.95533019
7.8330717 -53.477341 0.98175597
17.090342 -52.971199 0.98586303
24.657116 -50.08028 1.0072601
26.639935 -51.037895 1.0003766
1.6058811 -48.06395 0.28907362
2.3451941 -48.303501 0.27314565
24.71254 -49.908829 1.0085112
-0.19467354 -47.109615 0.3371613
0.72450989 -47.676975 0.31054658
-23.035685 -44.973289 0.76020288
25.127314 -44.813396 1.045637
-23.014183 -40.966366 1.4368006
-41.137856 -38.552532 1.0882161
-27.412018 -38.110859 0.62800008
-20.689602 -38.20153 0.29434547
-10.591512 -38.592068 0.45175615
-8.7926788 -38.175827 1.1914498
-6.7777786 -39.710449 1.5469968
-40.722023 -37.073555 0.42157647
-33.187065 -37.81144 1.0939747
-31.952858 -36.023216 0.60841137
-26.60601 -36.798275 0.51295733
-25.180605 -36.672321 0.69486523
-23.075981 -36.716396 0.8529765
-20.96426 -36.755772 0.40138671
-10.301569 -36.871517 0.40166461
-9.22616 -36.483234 0.65438414
-7.3379569 -36.432224 0.70573103
-41.79747 -35.336567 0.43237805
-31.49379 -34.661385 0.53614396
-26.898455 -35.292229 0.49349323
-24.232344 -35.929417 0.34207353
-22.780928 -35.565899 0.43747875
-21.219584 -35.495564 0.24483015
-10.198789 -35.877228 1.4608655
-8.7891417 -35.871944 0.38891962
-7.0939202 -35.826271 1.4930013
-32.656368 -33.667969 0.6135096
-31.461735 -33.534966 0.33158833
