# .PCD v0.7 - Point Cloud Data file format
VERSION 0.7
FIELDS x y z
SIZE 4 4 4
TYPE F F F
COUNT 1 1 1
WIDTH 1528
HEIGHT 1
VIEWPOINT 0 0 0 1 0 0 0
POINTS 1528
DATA ascii
-8.1877203 -45.749634 4.0548429
-7.6739206 -44.828838 4.7053638
-4.2440886 -44.529209 4.9981518
-3.8521309 -44.581455 4.3922596
3.9212129 -44.595047 4.2082777
4.25036 -45.354946 4.2981606
6.4875751 -44.476913 4.8301759
9.823904 -44.860546 5.0921516
10.168222 -45.716446 5.1199837
-12.794718 -42.047932 4.3028965
-11.87924 -42.03434 4.3314152
-9.2184124 -42.01527 5.4252381
-5.6321583 -43.540787 4.0787067
3.7550883 -42.944519 4.2254915
5.1257563 -42.788185 4.9977283
6.6007972 -43.685066 5.005825
9.7909269 -42.821098 5.0499182
10.087752 -43.155895 5.2280593
-26.812037 -41.624596 5.2116227
-12.327316 -41.969673 4.3151236
-11.272335 -41.0439 4.3142204
-8.5976143 -41.317947 4.9053173
-7.3521881 -41.040863 4.1056662
-4.6917472 -40.702236 5.0771666
-3.7684813 -40.088589 5.3270354
3.2504823 -40.955502 4.3554893
5.4249148 -41.486725 4.7660041
6.0624881 -41.964752 4.7370257
9.2879505 -41.462353 4.8961425
-12.927547 -39.607292 5.0952044
-11.657529 -39.444469 4.2426887
-6.2777138 -39.872673 4.0711479
-3.5475619 -39.776665 5.3272305
3.073684 -39.400345 4.429019
4.8206749 -39.352261 4.402163
6.6045642 -38.372326 4.6218953
9.0333261 -39.411259 4.9557986
-8.6153421 -37.371998 4.9864397
-5.249331 -37.051617 4.8492312
2.9822414 -37.731174 4.2204366
5.7053571 -37.471191 4.6078906
6.6433516 -37.618427 4.5991426
8.5284576 -36.666885 4.9232435
-27.834635 -34.122498 5.1590815
0.97303605 -34.299965 4.5946035
2.4988341 -35.063904 4.1839705
4.9908843 -34.988464 5.1126022
6.6214089 -35.038265 5.3139157
8.7098122 -35.773907 4.9086962
-14.250161 -33.343243 4.6370888
-13.914311 -32.609432 4.8628922
-9.3478975 -33.442532 4.5283031
-6.3608904 -32.378757 5.4719291
-5.7171216 -32.897655 4.8227286
4.8819418 -33.313175 4.6796217
7.2670894 -33.041767 5.2161946
8.0603685 -33.125645 5.0832324
-13.05729 -30.854223 4.5191436
1.4490037 -30.945642 4.8793063
3.7002304 -30.141691 5.3957148
4.2642608 -31.136322 4.8036056
7.822608 -31.307241 4.8794217
-9.8291655 -29.526648 4.9925132
-6.3820615 -29.178352 4.781589
4.3918447 -29.141899 4.6314211
-6.6611123 -25.724047 4.9392934
2.6605628 -24.972498 4.2514853
4.1111126 -24.678635 4.5441933
-7.5882545 -22.854599 4.2242484
0.47194409 -23.302837 4.8685098
-8.6722202 -21.91404 4.9233694
-7.1705894 -21.153692 4.906467
-15.794166 -17.14992 4.9366865
-7.3279853 -17.469597 4.8781781
-0.53637481 -15.631605 4.8145151
-2.098834 -57.036583 3.8604603
-1.5429589 -57.361866 3.8389659
3.4370358 -56.15567 3.966531
6.0209694 -56.282127 3.9971957
3.3201816 -54.541035 3.9626453
4.2801366 -55.652699 3.9824498
-6.0275826 -52.520061 3.9981632
-4.3149142 -52.05854 3.9861162
-3.9487126 -52.528141 3.9898837
3.1842628 -52.650505 3.9119492
4.8762641 -52.102695 3.8900077
-4.3817682 -51.868935 3.993223
-2.5136225 -50.822273 3.9449432
-1.6090493 -50.618488 3.9054339
3.2953968 -51.157825 3.8778143
4.7956285 -50.808884 3.9213834
-4.317966 -48.260193 3.9029105
-2.4528286 -48.669117 3.9218695
-1.7872175 -48.747013 3.8711655
4.5798039 -48.965359 3.8519032
-10.086115 -46.533325 3.8483438
-9.0165825 -46.361023 3.9528754
-5.1628332 -47.307438 3.932431
-2.3739729 -47.090824 3.9340661
-1.8339189 -47.350403 3.8662367
3.6208172 -46.311527 3.746388
4.3887029 -46.833794 3.8295932
-8.5112896 -45.048882 3.9533753
-7.2966084 -45.463245 3.9498577
-4.7757182 -45.014725 3.9481754
-2.6412268 -44.835442 3.8871536
1.9185276 -44.731842 3.7920685
3.1169574 -45.323097 3.7954359
4.2540112 -45.252697 3.772433
-13.422585 -42.590164 3.7582917
-5.3282456 -43.761387 3.9738915
-2.5739021 -43.053753 3.9149916
1.7415535 -43.015694 3.8571596
3.768347 -43.001358 3.8280005
4.1443624 -43.785351 3.7585604
-6.0302849 -41.615265 3.9486909
-5.0384107 -41.101265 3.9685934
-3.1214569 -40.955879 3.9105022
1.470981 -41.007114 3.8826489
3.4747791 -40.94519 3.8534653
-3.2832198 -39.501457 3.8994462
1.2290689 -39.905426 3.8162026
3.1185992 -39.526321 3.9356449
-4.4869409 -37.86586 3.971005
-3.3287926 -37.156181 3.9402385
2.7628424 -36.810879 3.9101088
0.67897743 -35.713089 3.8350575
2.4228747 -34.404984 3.9992957
0.29896045 -32.022316 3.8474665
2.1838946 -32.789299 3.8827662
9.2688942 -80.089127 5.1413207
3.2712116 -76.026978 4.5509663
1.0696102 -74.299812 4.6096253
2.6528986 -75.509972 4.5683732
-4.3844104 -72.147743 4.8876853
-2.2801971 -72.070274 4.3112121
-1.0121849 -72.80336 4.6330104
0.32531929 -73.750053 4.6279044
-7.6898527 -70.048882 5.2905121
-4.9524446 -70.661179 5.0064096
-3.2849178 -71.607658 4.2123942
-21.415594 -68.105499 5.4449797
-6.7245326 -69.856773 5.0208964
-5.8129535 -69.935135 4.9761715
-21.376251 -67.579643 5.2136102
3.5840735 -66.229324 4.9562454
-45.821915 -64.218658 5.7172937
3.4653072 -65.726227 4.4589405
-46.212997 -62.718838 5.7138176
-32.22057 -60.049458 4.7075071
-23.019615 -60.981209 4.7903814
7.8909836 -60.713661 5.0817637
-43.4963 -58.217682 5.656599
-24.063444 -59.206051 5.1079216
-12.08276 -59.131767 5.6812077
-11.15948 -58.457542 5.1929746
-46.691868 -56.311111 5.6846318
-43.701412 -57.741383 5.6564679
-24.708822 -56.825741 5.4230695
-10.620814 -57.402306 4.9521608
-9.315506 -57.037365 4.3793478
-2.4733846 -57.316689 5.5332832
-1.4781022 -56.763092 5.4547629
3.917501 -56.522182 4.0998654
4.870296 -56.579739 4.5935807
8.4486113 -56.255596 5.0751896
11.338686 -56.634102 5.1519971
-46.989197 -55.04385 5.6812963
-37.510536 -55.324722 5.1109905
-28.786415 -55.523903 5.4650068
-23.531002 -54.916351 4.8027024
-10.689843 -55.228062 4.9154325
-9.5781822 -55.073765 4.3271461
-6.2706122 -55.037502 5.4780307
-5.977138 -54.914219 5.6408482
-1.3511953 -55.787113 5.4984322
5.1350842 -55.370285 4.291676
7.1793303 -54.96487 4.9825592
8.5930662 -55.865829 5.1882443
11.374253 -54.941704 5.0704198
-47.544861 -52.821011 5.6758566
-41.562702 -53.794861 5.6092253
-14.852029 -52.73373 4.3773713
-13.270083 -52.64204 4.4558716
-10.108711 -52.719158 4.3820105
-9.7868633 -53.085815 4.3910875
-6.6418538 -52.359268 4.7663999
-5.5065565 -52.240726 5.1259222
-3.8493352 -52.269478 4.0278463
3.2540987 -52.811661 4.8610449
5.198298 -52.530338 4.4379811
7.0101986 -52.760696 4.669426
10.936891 -52.991207 5.0525923
-47.412487 -51.510548 5.6671176
-14.757319 -50.219402 4.5138097
-13.77424 -50.05994 4.547472
-9.403183 -51.839073 4.1848669
-6.4210615 -51.544624 4.874867
-4.3830214 -51.869301 4.3347797
-2.9134917 -51.499359 5.1387835
-1.7165593 -50.873798 4.0143895
3.2687147 -51.169254 4.9021544
5.0088334 -50.926849 4.4217005
7.2010536 -50.936192 4.907753
8.1823244 -50.986835 4.99051
10.723229 -50.683498 4.9730859
-13.685194 -49.997639 4.550487
-10.318255 -48.823914 4.408824
-9.8543653 -48.937782 4.1781526
-7.2468643 -48.74342 5.0424604
-5.1217418 -48.320099 4.0149927
-3.66099 -48.134838 5.0742226
4.8809633 -48.963509 4.3693576
6.8337398 -49.0397 4.5740476
8.3095465 -48.935497 4.6819634
10.157007 -48.977406 5.0627189
-48.055622 -46.716141 5.648706
-47.826538 -46.811516 5.646471
-12.373969 -46.251305 4.5704722
-10.496882 -46.773567 4.2729955
-9.964776 -47.820282 4.1633515
-4.377665 -47.322113 5.3558459
-3.7113698 -47.853207 5.0372276
4.7407212 -46.944233 4.3458076
6.6198831 -46.878418 4.5474024
8.8586836 -47.088108 4.6550865
10.281837 -47.255192 5.0513425
-48.045017 -45.856411 5.6438894
-12.238297 -45.732525 4.5679331
-10.661176 -45.42614 4.3034883
-8.159585 -45.445419 5.2947655
-7.662992 -44.784885 4.9675226
-4.252296 -44.492588 5.0786572
-3.919807 -44.478577 5.5261755
3.9200151 -44.595119 4.228374
4.5330882 -45.245567 4.3373899
6.4633665 -44.876114 4.5828228
9.4749022 -44.939217 4.9453225
10.186716 -45.778118 5.0558748
-48.708557 -42.208733 5.6319761
-14.065321 -42.726677 4.0822144
-12.71104 -42.446968 4.1436877
-11.836452 -42.08691 4.1763697
-9.2846746 -42.165703 5.4440365
-4.8632326 -43.798668 4.024487
-2.9437122 -43.710526 4.0306978
3.7779343 -43.003036 4.2329297
5.1797132 -42.998936 4.7968154
6.6844287 -43.333832 4.872293
9.7908449 -42.915409 5.0132122
10.075308 -43.303146 5.2922416
-49.089592 -40.939175 5.6296358
-30.930752 -40.20623 5.2132716
-26.783606 -41.55901 5.0293937
-12.527441 -41.60091 4.4729075
-11.397399 -41.162193 4.2533917
-8.5893116 -41.391937 4.6041622
-7.1884956 -40.864902 4.0814443
-4.53936 -40.794556 5.1529408
-3.867624 -40.312515 5.4481087
1.6246113 -41.233906 4.0050821
3.2433951 -40.977322 4.3171806
5.3762755 -41.164494 4.6102061
6.3645339 -41.753376 4.7217083
9.1491089 -41.126266 4.9256587
-48.887779 -38.764465 5.6153479
-46.422501 -39.754799 5.5911016
-12.629072 -39.301327 4.822525
-11.916788 -38.071922 4.3824215
-6.5818849 -39.756229 4.0362725
-4.0193663 -39.968956 5.5500083
-3.6474319 -39.724384 5.4894676
3.0489681 -39.644627 4.4537106
4.0004883 -39.990211 4.372344
9.0236635 -38.841908 4.9400926
-49.197071 -37.235126 5.6107273
-12.05673 -37.578941 4.3619657
-11.878076 -37.573849 4.3660455
-8.648406 -37.420158 4.6818633
-5.1937308 -37.003288 5.0654101
3.189039 -36.363964 4.3080683
5.1922727 -37.067146 4.3955073
8.7929382 -36.915859 4.8506899
-49.843414 -34.400677 5.6030426
-27.123892 -35.31847 4.6073089
-13.059153 -34.444942 4.2246203
0.94822019 -34.421776 4.5299411
2.6888206 -35.226749 4.3605194
4.977531 -35.044197 5.112988
6.3234072 -35.064316 4.9933534
8.6861477 -35.052139 4.7666364
-50.230484 -32.077354 5.595027
-49.763042 -33.784237 5.5987144
-27.959318 -33.940842 4.5786405
-13.88541 -32.117603 4.8990645
-9.3768845 -33.305958 4.9939971
-6.3555789 -32.398273 5.4823895
-5.7649436 -32.913242 4.9904246
2.2914407 -33.533634 4.2743487
5.328824 -33.212303 4.6033421
7.4362268 -32.72295 4.9343429
8.4316368 -33.439991 4.858202
-50.358181 -31.178211 5.5916595
-13.825896 -31.955299 5.156559
1.528934 -30.86517 4.7217603
3.3524756 -30.457968 5.1257753
4.4401994 -31.439014 4.8530951
7.7900534 -31.028107 4.8831911
-50.386703 -29.914181 5.5851088
-9.8933458 -29.510513 5.095933
-6.3860683 -29.227345 5.0755196
-5.9511652 -29.256227 5.5237546
3.377121 -29.782272 5.3736277
4.7388639 -28.714247 4.9156237
7.630456 -28.282661 4.3880925
-10.36657 -26.131393 4.8496389
-6.6058197 -26.329189 5.0390477
-14.775106 -24.799257 4.7502704
-10.306492 -25.882025 5.0811133
-6.5748553 -25.762403 5.035584
1.4768428 -24.379919 4.3723245
3.0927684 -24.822058 4.4347677
4.2677703 -24.592455 4.5279737
-7.586091 -22.265842 4.3864322
0.85060656 -23.057859 4.341898
3.2552962 -23.640305 4.3280811
-8.6951447 -21.847763 5.0397344
-7.1275468 -20.959204 4.7892747
0.57193857 -21.043427 4.2873445
-29.81876 -18.747559 5.2768602
-7.3425536 -17.34498 4.9989114
-0.58441758 -15.598583 4.9081144
-10.517553 6.7472563 4.9057064
-11.619023 8.7704239 4.9079189
2.4359143 -62.531765 3.9295509
-4.7590032 -58.071033 3.9156256
-3.0256081 -58.589569 3.9089229
-2.7529731 -56.017448 3.8542349
-1.4719112 -56.343163 3.8440332
3.5786452 -57.011032 3.9941726
-2.8942604 -55.94154 3.8584106
3.3096535 -54.882465 3.9434631
3.2005155 -53.151398 3.9378657
4.9743052 -52.140675 3.9379833
-1.3148913 -51.632423 3.9759178
3.1564775 -50.99556 3.9058886
4.6943054 -50.777287 3.9528103
-4.9018025 -48.715645 3.9945941
-3.9946816 -48.160767 3.8779864
2.9571972 -48.786171 3.8765383
4.6290269 -48.66967 3.8707447
-3.6953743 -47.942963 3.957757
3.4069474 -47.479004 3.8474119
4.3853197 -46.855274 3.8280973
-7.4497423 -44.681255 3.9821463
-5.1178679 -44.543655 3.964478
-2.5162888 -44.638847 3.8728521
3.9180024 -44.574265 3.7967398
4.2619262 -45.300072 3.771059
-13.810991 -42.665165 3.8418784
-9.4174614 -42.255608 3.910816
-5.5568767 -43.816998 3.9745591
-2.7570441 -43.429642 3.8804653
1.6672789 -42.301659 3.8049705
3.592823 -42.978069 3.7994232
4.2569704 -43.53931 3.796767
-8.7541924 -41.852169 3.9593239
-6.2848511 -41.213287 3.9538898
-4.7813025 -41.064892 3.9480858
-3.2095144 -41.063553 3.8994596
1.5149708 -41.086075 3.8736739
3.4172165 -41.283569 3.8452981
-4.328383 -39.166866 3.9413576
-3.0786328 -39.699642 3.8906019
1.304011 -38.869843 3.8771415
3.1793592 -39.661949 3.9097049
-4.0869732 -37.316048 3.9681635
-3.4322298 -37.221706 3.9033575
1.4062254 -37.929123 3.9491568
2.9729464 -36.853649 3.9591584
-3.4019916 -35.850403 3.8385658
0.83899343 -35.15337 3.8897233
2.6084213 -34.758728 3.9215455
-9.5370045 -32.854797 3.9822044
-3.7368076 -33.765171 3.903532
0.7900604 -33.810577 3.9358463
2.2915633 -33.342922 3.86619
1.577581 -30.324999 3.9296136
2.0049262 -30.582886 3.9419866
9.271534 -80.147453 5.1155472
0.87846476 -74.115257 4.5151234
-4.3640385 -72.178131 4.9126329
-1.0371051 -72.765984 4.5594506
0.33587557 -73.722618 4.5282116
-8.2242966 -70.424561 5.1377497
-7.8475161 -70.118881 4.9521885
-4.894526 -70.710358 4.9256525
-3.6255786 -71.405342 4.6055622
-6.7587662 -69.818954 4.9459219
-5.7486696 -69.920197 4.9053211
2.4157603 -62.262852 4.7832761
-43.124161 -58.983238 5.5811882
-5.3119526 -58.063251 5.4977207
-5.1142468 -57.206055 5.4721456
-2.7106969 -56.400795 5.0515094
-1.5662839 -56.762184 5.3951516
4.9580879 -57.285259 4.563879
7.5008769 -57.002033 5.1230416
8.4248648 -56.777653 5.1811476
11.332755 -56.575031 5.1817875
-28.706612 -55.586113 5.4127741
-24.440331 -54.244705 4.7427855
-22.929281 -54.10825 4.7602115
-4.3700294 -55.886852 5.4231658
-2.6890421 -55.3643 5.591507
-1.3465762 -55.804138 5.6113462
4.8744359 -54.825741 4.2618532
7.2676048 -55.959179 5.316185
8.3685331 -55.749413 5.3138905
11.323429 -55.811958 5.1773176
-12.009263 -52.753925 4.5391178
-11.67891 -52.671398 4.474318
-1.2652123 -52.890652 4.035924
3.2548189 -52.81044 4.8039017
5.117156 -53.011135 4.3830361
6.903688 -52.57296 4.8744154
8.6639309 -53.448975 4.7461495
10.900208 -52.786945 4.9450965
-2.5098131 -51.38372 5.5470562
-1.5416927 -51.298931 4.0178499
3.2646329 -51.122459 4.8343253
4.9415216 -50.893715 4.3807664
7.3827033 -50.7547 5.0428734
8.4172792 -51.079395 5.1181593
10.75324 -50.858856 4.9125452
-25.593748 -48.643238 4.9107499
-10.163078 -49.379845 4.3878498
-7.126852 -48.552116 5.1521802
-3.6555839 -48.032169 5.1088333
3.4803293 -48.024673 4.9269938
4.833034 -48.878429 4.3804288
7.0038781 -49.032032 4.6062284
9.9942389 -48.028866 5.1525087
10.123571 -48.924858 5.0867076
-48.121521 -46.174053 5.5784564
-47.86533 -47.223927 5.5803137
-29.812315 -47.737534 5.3902612
-25.279633 -47.796406 4.735909
-12.239803 -46.221367 4.5905128
-11.045025 -47.064972 4.59551
-9.9991932 -47.321796 4.1814756
-4.3406992 -47.33453 5.3502922
-3.7963123 -47.908478 5.0463643
3.5349486 -47.94136 4.8676572
4.6438284 -46.948658 4.340095
6.6132584 -47.004269 4.5334835
8.5541916 -46.939468 4.6553311
10.268828 -47.048801 5.0330029
-48.340015 -45.665615 5.5785623
-12.260514 -45.699142 4.5882478
-10.565766 -45.354107 4.2841182
-8.263485 -45.106647 4.7352509
-7.7224469 -44.737335 5.1178412
-4.2437329 -44.438725 5.0856323
-3.9249914 -44.394028 4.8191781
3.9265277 -44.541813 4.2015624
4.6374679 -45.111698 4.3287482
6.3685012 -44.885548 4.5918198
9.3866205 -44.854301 4.9422269
10.185503 -45.805862 5.0574026
-26.764566 -43.491306 4.699069
-12.968192 -42.438801 4.2157784
-10.65149 -42.117111 4.0748281
-9.154973 -42.252171 5.6322174
-7.9484596 -43.025623 4.8447475
3.7793934 -42.98325 4.2361937
5.049377 -42.935371 4.6905766
6.610641 -43.241959 4.8561273
9.4933901 -43.121311 4.8525124
10.031225 -43.515957 5.3872232
-30.84177 -40.484879 5.3695407
-26.728582 -41.494884 4.9010582
-12.149828 -41.976089 4.252522
-11.166567 -41.247108 4.2114506
-8.562933 -41.335072 5.1558604
-4.646543 -40.72604 4.9772143
-3.9433968 -40.661125 5.5384412
3.3358002 -40.924622 4.3576012
5.1210971 -41.247803 4.5864587
6.9794612 -40.804184 4.6052508
9.244339 -41.385056 5.015965
-12.803047 -38.939438 4.7043743
-11.623541 -38.907276 4.2024274
-6.3915615 -39.675919 4.036747
-4.3650289 -39.93417 4.1752295
-3.5961576 -39.767502 5.3881092
3.0697458 -39.58736 4.4649305
5.4076462 -39.09029 4.5542064
6.1689839 -39.811371 4.6079316
9.1093998 -38.783356 5.004549
-49.572151 -36.424973 5.5513144
-12.211783 -37.760143 4.4559293
-11.712928 -37.513313 4.2802105
-8.4274359 -37.542274 4.7291975
-7.1917925 -37.259708 4.0577917
-5.2840796 -36.839191 4.946393
2.9203014 -37.024609 4.273859
5.5020466 -37.121735 4.9582348
6.077806 -36.247189 5.4534874
8.8437624 -36.988548 4.9216251
-49.680855 -35.859447 5.5500021
-27.960192 -34.075455 4.9521828
-14.118776 -34.607697 4.3070254
-13.232237 -34.396713 4.3233967
-9.4883308 -34.069839 5.4699936
-5.8330998 -35.857414 4.0161347
0.97344762 -34.350876 4.5252504
2.877955 -34.925449 4.3073092
5.0805535 -35.138954 5.0226674
6.1886559 -35.035049 5.0678749
8.703289 -35.230057 4.8344212
-14.036084 -32.114021 5.1539583
-12.744019 -32.612507 4.5579739
-9.4216671 -33.344677 4.8787651
-6.4123492 -32.455143 4.795115
-5.725708 -33.008888 4.7692819
2.4610593 -33.18103 4.3419886
5.7312183 -33.160278 4.8661919
7.6733613 -32.549633 4.8096447
8.4328785 -33.437599 4.92068
-50.329529 -30.749884 5.5345879
-12.562248 -31.884809 4.2501316
-9.5326204 -30.122917 5.5263696
1.5883414 -30.83835 4.7584996
3.3984013 -30.780878 5.0655708
4.6695127 -30.890562 5.0708413
7.6557899 -30.805836 4.7764025
-50.443275 -29.824039 5.5317545
-20.92354 -29.577723 5.2162414
-10.240371 -29.493444 5.5524845
-9.4977684 -29.532625 5.1293988
-6.3404136 -29.288029 5.1034389
3.5207446 -29.716942 5.3276687
5.2233038 -29.790033 4.9386582
7.7874923 -28.655596 4.6640344
-36.660259 -26.239502 5.3692803
-28.816748 -27.001518 5.289062
-10.736638 -26.100086 4.9888139
-6.5166183 -26.68598 5.5179458
-5.8424926 -26.275623 5.5124893
3.5269706 -26.240036 5.3921852
-36.711498 -25.722528 5.3675675
-14.886354 -24.72097 4.8284307
-10.323689 -25.794022 5.086803
-6.661377 -25.468271 4.4218264
-5.3843017 -25.18055 5.523797
1.7278382 -24.682699 4.7794442
2.8880732 -25.120621 4.9819489
4.4123111 -24.492027 4.6281443
0.75526637 -23.336399 4.5987144
3.2225325 -23.147005 4.4094791
-8.7061825 -21.685923 5.0516253
-7.0378146 -21.248575 5.0319438
5.2577934 -21.354115 4.9014349
-17.06776 -17.041687 5.1204004
-8.1290684 -16.891266 5.0245304
-7.5465789 -17.214018 4.9198813
-0.52252436 -15.631608 4.9380045
-8.2747087 -13.058792 5.0093379
-1.509079 -6.8909073 4.9103251
-10.771269 6.7420387 4.9494214
-10.571814 9.3946114 4.935708
-10.476804 11.359394 4.9261122
-10.340602 12.811742 4.9183164
-7.6589909 -58.151649 3.9692321
-5.0448856 -58.959557 3.980958
-2.8259442 -59.203999 3.9948232
3.2926586 -54.843971 3.957777
-1.1362852 -52.381454 3.9659183
3.0129416 -52.39381 3.9157789
-1.5278203 -50.597347 3.9513435
2.84115 -50.826866 3.9236839
4.6231093 -50.996067 3.9838865
-4.1155224 -49.144714 3.9989598
-2.5679722 -48.438599 3.9513991
-1.8889812 -48.741879 3.9536507
2.9169638 -48.656609 3.9131081
4.6154814 -48.465214 3.8265538
-9.9842548 -47.275909 3.8131161
-2.1178329 -46.739201 3.9301064
-1.9090167 -46.970158 3.9148684
2.9039438 -47.286621 3.8780787
4.2703676 -46.649658 3.8617215
-4.9081249 -44.855011 3.9620261
-3.2744536 -44.228378 3.9279215
1.9463274 -45.254547 3.7928553
3.2300327 -44.780586 3.8085692
4.1814241 -45.160709 3.7951088
-12.557996 -42.499043 3.9318852
-9.6986713 -42.103741 3.9330261
-2.8706977 -42.915543 3.8855867
3.7312677 -42.910271 3.807339
4.1448407 -43.280937 3.7775841
-10.237852 -41.969154 3.8710704
-9.523695 -41.853867 3.9494343
-6.0376744 -41.801849 3.9650526
-4.6364851 -40.917969 3.949765
-2.8452055 -41.187706 3.8508129
3.4136245 -40.914871 3.8279412
4.3049054 -40.754837 3.7132332
-11.055357 -38.925945 3.9897628
-8.2377577 -38.443954 3.9666915
-7.0039744 -38.303696 3.9725769
-5.3399262 -38.826389 3.9627473
-3.2594454 -39.47121 3.9011164
1.2893772 -39.141827 3.8539803
2.8272898 -39.549702 3.904675
-5.3614769 -37.427135 3.9739721
-3.4429932 -37.41087 3.9289875
1.0225551 -37.25145 3.8839252
3.0088649 -36.880241 3.9077039
-6.00282 -35.972031 3.9843168
-5.8879857 -35.859772 3.9827514
-3.5255203 -35.32917 3.9176178
1.0340748 -34.959358 3.8761551
2.6981559 -35.487576 3.9675369
-6.2090893 -32.643959 3.9369836
-4.1324744 -32.066051 3.9677024
-3.805845 -33.840481 3.9011221
0.86650372 -33.341663 3.9241066
2.3372483 -33.325893 3.8920004
-4.038672 -31.883553 3.954036
-3.9523878 -31.600677 3.9307628
-0.52412957 -30.641945 3.8918004
0.60326505 -31.155144 3.9382217
2.0771499 -31.526592 3.9575291
-3.1024952 -28.55969 3.9858592
-12.846835 -24.962618 3.9756634
-3.1478324 -25.841511 3.7850013
-6.5689311 -22.741808 3.982259
-5.932765 -22.526722 3.9783156
18.783039 -87.171402 5.2482519
11.878953 -85.790741 5.2679381
9.3252907 -80.153046 5.2439013
-8.3064442 -70.509346 4.9176693
-7.8659749 -70.106308 4.9206524
-5.0098281 -70.476044 5.0957036
-6.6590786 -69.835907 4.9038129
-5.9898548 -69.819206 4.5941586
-3.0867937 -62.812935 4.6758552
-8.3225594 -60.10693 4.2830601
-10.363523 -58.590157 4.7461128
-8.9561157 -58.980717 4.5524278
-2.5952809 -58.011139 5.5218301
7.9750566 -58.027393 5.1142454
-9.2596407 -57.090336 4.368999
-6.7324243 -57.079102 5.0187402
-5.726069 -56.962051 4.8534412
-2.6772361 -56.353436 5.1117344
-1.5719782 -56.847397 5.4802051
4.4807096 -56.119499 4.5411968
7.5011158 -56.736275 5.0989032
8.2619076 -57.244423 5.0395265
11.318193 -56.660442 5.1314149
-6.9157562 -55.519558 5.5034428
-5.3614826 -55.161861 5.4715443
-3.3208082 -55.972668 5.4698563
5.1207528 -54.940926 4.4014649
7.3719268 -55.605194 5.3213081
8.6840687 -55.893646 5.4639616
10.418847 -55.826111 4.7035317
-6.3106852 -52.369225 5.1565447
-4.9965229 -52.673126 4.7458582
3.2403443 -52.832474 4.7744689
5.1039705 -52.662716 4.4221454
10.945763 -52.504688 5.0448666
-4.0625091 -50.925434 4.0272498
-2.9985368 -51.547752 5.1060953
-1.4054399 -51.564053 4.0503907
3.2455363 -51.014782 4.7942333
4.7142105 -50.840195 4.2566552
7.3542323 -50.857475 5.2317495
8.535985 -50.99007 5.0914102
10.814922 -50.853222 5.0772681
-12.770294 -48.34071 4.5947633
-10.66384 -48.377163 4.4457488
-9.8707066 -48.121208 4.0701408
-4.1132727 -48.964958 4.0189643
-3.5291665 -48.141388 5.2149158
-1.9642266 -48.300381 4.0193019
3.4813676 -48.013657 5.0420399
4.674993 -48.772999 4.3233356
7.2203636 -48.976009 4.6393671
10.119481 -48.868114 5.0608096
-44.456272 -47.734299 5.2649188
-24.885811 -46.751606 4.5877376
-11.025003 -47.219799 4.5102687
-9.9423151 -47.54491 4.0852056
-4.0344214 -47.954788 5.5810814
-3.7730939 -47.946751 5.1500998
3.5406938 -47.942398 4.813343
4.4776869 -46.863209 4.3082409
6.4650502 -46.319824 4.5084834
10.29521 -47.161514 5.0045977
-35.075626 -44.778793 5.2086582
-12.679418 -44.900719 4.5058274
-8.0728378 -45.159836 5.164083
-4.2080698 -44.425503 5.1478062
-3.8785145 -44.538609 4.2955823
3.9209275 -44.508842 4.2431421
4.6394963 -45.044708 4.3477778
6.4385862 -44.701527 4.6341424
9.8627691 -44.974529 4.9470801
10.159725 -45.788231 4.9170995
-26.040455 -42.25378 4.5462608
-25.41045 -42.947712 4.5624366
-12.699539 -42.310654 4.2894945
-10.636498 -42.126179 4.0968781
-9.0246592 -42.586643 5.1796103
-7.9197741 -43.93782 4.1311316
3.7512934 -42.846058 4.2059793
5.0359421 -42.82238 4.7359128
6.5182033 -43.28566 4.8489795
9.7801323 -43.124409 4.7633562
10.019583 -43.659428 5.0181513
-26.778997 -41.543507 5.1551037
-12.335345 -41.339233 4.5055671
-11.1793 -41.122345 4.2354975
-8.497076 -41.276447 4.9823952
-6.7942009 -40.336895 4.0294585
-4.6215029 -40.696259 5.0062199
-3.7954707 -40.418491 5.3935223
3.336287 -40.860035 4.3770046
5.1009536 -41.16851 4.6150331
6.6683116 -41.117405 4.6760345
9.1048098 -40.933949 5.0302391
-12.708943 -39.0467 4.6934543
-11.655946 -39.055828 4.2196755
-9.2621908 -38.215611 4.1081853
-7.3647943 -38.594852 4.0175567
-4.7573142 -39.712582 4.3244276
-3.5855892 -39.717388 5.439085
3.0381284 -39.421711 4.5113173
5.1813121 -39.179077 4.4562402
6.6206393 -38.961201 4.5953269
9.0860405 -39.111229 5.0358577
-31.771395 -36.35413 4.3868093
-11.66092 -37.318573 4.2599735
-8.6698256 -37.280712 4.7466235
-7.2342262 -37.784409 4.0232549
-5.2479548 -36.961159 4.7162805
3.0791013 -37.060722 4.2963724
4.9207158 -37.522369 4.4738994
6.4142385 -36.91024 4.6043487
8.8664207 -36.966518 5.0908532
-16.978693 -34.465076 4.6303787
-14.761216 -34.686131 4.2747307
-12.773609 -34.32687 4.3363395
-5.5338249 -35.962132 4.0183554
0.94844264 -34.294926 4.5791655
2.7242923 -35.067005 4.3119674
4.9284539 -35.066875 5.0158343
6.5903478 -35.312187 5.3087392
8.7404089 -35.161118 4.9662542
-16.427805 -33.834076 4.6293578
-12.856642 -32.744713 4.5504537
-9.3390236 -33.432995 4.7793598
-6.3089809 -33.138279 4.6496506
-5.7137909 -33.125095 4.679244
2.4056246 -32.89991 4.2674599
4.9049168 -33.66576 4.7406836
7.3437738 -32.90477 5.0455728
8.5056009 -33.406521 5.0378385
-12.921044 -31.323456 4.4343414
1.5474048 -30.927881 4.6196237
2.6811378 -31.3524 4.5854096
4.8034129 -31.039228 5.1097465
7.7355833 -31.045458 4.8341117
8.153018 -30.436863 4.9449835
-20.607929 -29.4233 5.0559335
-10.148941 -29.51543 5.4003677
-9.7229061 -29.625479 4.9358358
-6.3628592 -29.183828 4.9741564
-3.1122301 -28.280701 4.7791972
1.8089985 -29.22114 4.339664
3.554549 -29.788904 5.2645688
5.0993786 -29.256767 5.0286989
7.8916459 -28.948732 4.9369578
-28.705015 -26.884272 5.0734024
-14.902168 -26.208395 4.4962091
-11.532381 -26.212318 5.4159679
-6.3889728 -27.016109 5.3748646
-5.9510436 -26.383293 5.378799
-2.9308815 -27.577805 4.2605557
3.4352615 -26.156815 5.3245435
4.1069908 -26.083309 5.3262715
7.5046768 -26.528891 4.7565365
-14.545345 -25.183868 4.6430697
-13.955791 -24.760229 4.4724083
-11.047115 -25.639275 5.4655218
-9.5324726 -24.903484 5.3606782
-6.5863795 -25.540474 4.7628126
-5.6313357 -24.650341 5.402328
1.3982365 -24.546738 4.3115163
3.079169 -25.189299 4.9485946
4.2474847 -24.625328 4.8037848
7.3489056 -25.183632 4.8403668
-0.09680295 -23.63895 4.0568686
0.53753877 -23.416096 4.4401999
3.2817886 -23.227713 4.5153737
4.0604067 -23.00984 4.9162846
7.0040374 -23.82169 4.9092541
-8.4531717 -21.289248 4.7709708
-6.8908029 -20.60895 4.5391726
-5.895298 -21.957336 5.4484048
0.69047052 -21.382492 4.4295125
7.765811 -20.818775 4.3550887
-29.824909 -18.789486 5.0285168
-8.0549622 -19.98959 4.3898125
-6.1441593 -19.759268 4.3892403
-17.297598 -16.900652 4.9659557
-7.4525127 -17.30958 4.9283557
-0.50845081 -15.726254 4.2683315
-6.0361423 -56.097446 3.9062188
-5.380024 -56.43924 3.8933082
-2.9451442 -57.048512 3.872277
-1.5364549 -57.479397 3.8440242
-1.4214233 -51.311012 3.9863837
2.7989314 -51.082275 3.9445424
-1.7303742 -49.128994 3.9365485
2.7320633 -48.570309 3.9253311
4.5759807 -48.890697 3.9140353
-6.6258183 -47.384266 3.9197159
-5.1303473 -47.455524 3.9498591
-2.3728595 -46.988686 3.9706633
-1.8746978 -47.283531 3.9454298
3.1363108 -47.588852 3.9382803
4.3207693 -46.789017 3.9160504
-4.2419834 -44.461601 3.9520063
-2.444731 -44.40863 3.888412
1.8789861 -44.244675 3.8491364
3.7141089 -44.560642 3.8916905
4.1411862 -45.431053 3.8340347
-10.64444 -42.246914 3.8622029
-9.913271 -42.367699 3.9346247
-2.8122091 -43.263748 3.8759131
1.656585 -42.609116 3.8264186
3.4949265 -42.781113 3.8367584
4.2106915 -43.352097 3.8118181
-10.849422 -40.783718 3.8674634
-6.3208513 -41.094418 3.9656849
-4.397892 -40.459908 3.937063
-3.5203643 -40.239464 3.8878989
1.9993153 -41.728561 3.7835236
3.1508353 -41.03397 3.8352404
4.1696448 -40.967957 3.7247005
-8.6209431 -38.729019 3.8994398
-6.8289413 -38.453823 3.8970845
-4.502799 -38.758503 3.8761072
-3.3534863 -38.572926 3.8383076
3.2240686 -38.893955 3.8736825
4.2332807 -39.219505 3.7217648
-5.5909925 -36.664021 3.9615929
-3.2920735 -37.319008 3.8700883
1.3115722 -36.515194 3.7882783
2.9812679 -37.275257 3.8257451
-14.266023 -35.074635 3.7764094
-13.37574 -34.919174 3.841502
-8.4594822 -34.236305 3.9374542
-6.2093239 -34.058823 3.9164815
-5.3793535 -34.845566 3.9670875
-3.5868459 -35.390976 3.8785658
1.1534983 -35.442226 3.8389339
2.7499073 -35.28273 3.8910031
-6.5230751 -32.882915 3.9890904
-4.2474155 -32.639385 3.9138067
-3.7302973 -33.273884 3.8846335
0.56416965 -32.931637 3.8466463
2.3502715 -33.095387 3.8792861
-7.9333315 -30.481552 3.9740534
-4.1334467 -30.473013 3.8867002
-3.8389187 -31.925404 3.8510437
-0.022950716 -30.876965 3.7886171
1.1269213 -31.245461 3.8733041
2.0991011 -31.196856 3.9187174
-4.4534655 -28.383261 3.9384043
-0.17320073 -29.458176 3.8311954
-7.1140699 -26.036856 3.9945059
-4.4454966 -27.943459 3.8996871
-0.19604759 -24.121733 3.9165928
1.1726515 -24.620226 3.9266658
2.1072812 -25.084223 3.89082
-0.64465749 -23.728571 3.8911266
0.31248188 -23.898575 3.895854
-0.56449944 -15.660709 3.8463244
-16.070299 -91.652283 5.3116894
-15.805509 -91.746712 5.3097916
9.3201427 -80.104355 5.0680933
-22.299347 -74.531189 5.3117895
-22.386419 -73.772926 5.3102393
-8.4300547 -70.690208 5.1861033
-4.9917874 -70.580475 5.0775766
-6.5278935 -69.792366 5.0370045
-5.7708335 -69.928047 5.1619282
-18.833849 -67.774933 4.8699031
-18.598019 -64.130669 4.5364523
-8.5295706 -63.490379 5.1653957
6.6096773 -60.623512 5.0321651
-10.661516 -58.474556 4.885323
-9.2812405 -58.649807 4.6287875
-6.8052912 -58.036976 5.1348925
-2.5174959 -58.033432 5.5326476
-10.535184 -57.582054 5.2327309
-6.7957835 -57.205303 5.0421867
-5.5174713 -56.653431 4.9994307
-2.7047496 -56.513016 5.2535868
-1.4603909 -56.759037 5.4882169
4.9866228 -56.574852 4.5393023
7.254313 -56.752979 5.4503646
8.4283056 -56.247772 5.1478391
-14.327818 -54.426132 4.708745
-13.929462 -54.162872 4.7154713
-10.76219 -55.164169 5.1584949
-9.6414547 -54.298119 4.3287373
-5.2681293 -55.330666 5.4999661
-3.2856095 -55.967457 5.4882965
-1.2858553 -55.828835 5.462121
5.2399268 -54.945 4.6517749
7.1961823 -55.313984 5.2906489
8.5151644 -55.786179 5.4293823
-14.247164 -53.807133 4.7178507
-12.073648 -52.615852 4.3369212
-11.126919 -52.475628 4.3625197
-9.8200903 -53.035332 4.3704219
-6.6211834 -52.327694 4.7504587
-5.9545741 -52.430691 5.4395704
3.2663255 -52.784721 4.8456235
5.027782 -52.86956 4.4139981
6.7796798 -52.556469 4.6641088
10.871753 -52.617924 5.2261653
-6.8774981 -51.908764 4.5075431
-3.070435 -51.606243 4.9070616
-1.665948 -51.026371 4.0108418
3.2856028 -51.016003 4.7905669
4.7746954 -51.271221 4.3005567
7.5524178 -50.990147 5.1876116
8.2122488 -50.709484 5.2174311
10.749146 -50.827698 5.2447348
-24.989151 -48.291729 4.6443248
-10.212851 -49.172623 4.4030056
-9.7753468 -49.280811 4.1853499
-7.2042098 -48.638901 4.8092446
-5.5697141 -48.249096 4.1565299
-3.6051025 -48.051598 5.0916843
3.5042346 -48.005527 4.5901427
4.659584 -48.809906 4.3817711
7.5434828 -49.457672 4.6998987
9.9997082 -48.001106 4.9665108
10.100228 -48.822147 5.1445451
-25.186909 -47.359135 4.6456299
-4.5055089 -47.333939 5.0533996
-3.7536273 -47.828373 4.7675695
3.5526111 -47.929268 4.7836952
4.3901267 -46.712849 4.3145065
9.9972839 -47.981075 5.272459
10.244535 -47.546143 5.0062985
-4.2065301 -44.345886 5.0114055
-3.8598616 -44.300781 4.6522379
3.9210205 -44.579865 4.2375736
4.3029985 -45.048008 4.3367124
6.3481421 -44.587837 4.6144695
9.7643652 -44.44355 4.9402909
-26.721655 -42.383476 4.6320634
-25.79594 -43.247425 4.6458325
-10.640079 -42.215202 4.1301022
-8.9673405 -42.01757 5.5315771
-4.0524611 -43.94902 5.3449559
-3.9197311 -43.977741 4.0493226
3.7488825 -42.987129 4.2555861
5.1345096 -42.791233 4.7866073
6.5955896 -42.968494 4.7623153
9.7565107 -42.786671 5.0434327
-27.041262 -41.712025 5.0406103
-11.307755 -40.949017 4.3435788
-8.5344009 -41.260902 4.8202896
-6.489922 -41.078526 4.0256748
-4.5286074 -40.568081 5.0804586
-3.8001094 -40.328785 5.3827729
3.5282524 -41.041542 4.2904139
5.0854712 -41.219814 4.5678792
7.1448383 -41.375004 4.6910973
9.166831 -41.056389 5.0636539
-12.100503 -38.592239 4.2926378
-11.557099 -38.373531 4.2500277
-8.7638588 -38.555702 4.0889759
-7.7467804 -38.158463 4.0016685
-4.2852612 -39.906338 5.2888842
-3.614115 -39.760036 5.3842387
3.3177741 -38.914928 4.2835708
5.0127621 -39.040394 4.4773226
7.0142484 -39.009792 4.6303201
9.1575031 -39.030632 5.0435138
-24.843107 -36.057529 4.6394372
-11.717826 -37.570347 4.3040524
-8.6350393 -37.31517 4.7600417
-6.974463 -36.315437 4.0157528
-5.2527776 -36.941486 4.9441638
3.1360805 -36.996059 4.3063102
4.9068618 -37.12328 4.4882741
6.6635718 -36.985283 4.6921887
8.8782539 -37.02562 5.052721
-27.868916 -34.065269 5.23666
-24.169016 -35.074257 4.642602
-16.380297 -34.942387 4.3597784
-14.940227 -34.810139 4.306715
-13.084369 -34.431828 4.2590904
-9.6902809 -34.46624 4.1034427
-7.3829341 -34.343719 4.0125957
0.91466981 -34.221317 4.6264949
2.9030316 -35.06517 4.3420696
4.8198633 -35.059673 4.9456744
6.3482246 -35.337273 4.7482677
8.6984463 -35.093838 4.989501
-27.952877 -33.897526 5.2368498
-14.044622 -32.12722 5.4817476
-12.987253 -33.361027 4.4950104
-9.4091587 -33.391479 4.6096072
-6.6621003 -32.845936 4.9044971
-5.6938353 -32.896713 4.744905
0.79928809 -33.982445 5.0003147
2.4406569 -33.130539 4.2765145
4.9896274 -33.368942 4.5739908
7.6723714 -32.414963 4.9493551
8.375432 -33.459106 5.0108924
-12.916987 -30.868498 4.4209375
-6.0504513 -30.049801 4.0279059
-4.2097602 -31.811819 4.0279932
1.8296036 -30.653244 4.529304
2.8995063 -30.963509 4.7329955
4.6394749 -31.137104 5.0662847
6.9832978 -31.137598 5.0910234
8.003417 -30.63068 4.6522384
-12.879533 -29.693892 4.3520818
-10.184601 -29.464579 4.0966659
-9.7150545 -29.507017 4.9089303
-6.3532753 -29.174036 4.9429922
-5.5402679 -29.604794 4.0107517
1.872185 -29.732508 4.1556153
3.558449 -29.767406 5.3012686
4.6333609 -29.465923 4.767765
7.6533375 -28.695007 4.837009
-38.709476 -27.605581 4.3703599
-36.765808 -27.125319 4.8387628
-28.793762 -27.106123 5.2234678
-14.381191 -26.954901 4.2209072
-12.970438 -26.656124 4.8681479
-10.510334 -26.203232 5.0945287
-6.4255052 -26.601517 4.7721081
-5.2975473 -26.202988 4.5735464
3.522799 -26.129807 5.2755022
4.1662178 -26.208822 5.2729259
7.475616 -27.535891 4.9511395
-14.884986 -24.869041 4.9828796
-13.1978 -25.294575 4.1912336
-10.825069 -25.598591 5.4283838
-9.7566051 -24.857525 5.4659977
-6.4069176 -25.342316 4.9972525
-5.616261 -24.661249 5.3917861
1.6336697 -25.061884 4.4795198
3.1570504 -25.203732 4.8123059
4.4115963 -24.544619 4.609931
7.1428957 -24.631731 4.847765
-8.2699547 -22.846714 4.1790924
-6.737174 -22.888779 4.2518697
-5.4320946 -22.209469 4.174736
0.59785807 -23.199991 4.6044683
3.3748224 -22.679544 4.6077352
5.1676922 -22.695438 4.5219498
6.0785642 -22.816837 4.5108795
10.096689 -23.53606 4.6730523
-8.5609684 -21.885187 5.221067
-6.8958316 -21.428326 4.9591646
-5.7417932 -21.401937 5.1253915
1.1855507 -20.746256 4.5218248
4.8901844 -21.418728 4.4941144
7.7317715 -20.910107 4.7894826
-14.160272 -18.75996 4.4975686
1.3606226 -18.600397 5.161571
2.5968957 -18.553894 4.9330082
-16.575144 -16.859777 4.9341931
-15.880475 -17.214396 4.7711759
-8.2718334 -16.225962 4.4503264
-7.5008616 -17.017221 4.6508479
0.22534215 -17.308422 4.4406776
-15.19809 -15.648232 4.4231267
-7.5983334 -15.78565 4.4386864
-0.48854908 -15.380798 4.6177363
0.010698736 -14.964163 4.381062
3.0075572 -15.56322 4.9270983
-8.1605062 -13.10654 5.011713
-0.16614005 -13.936544 4.3555956
-0.093913108 -10.73796 4.9382095
0.174915 -10.433722 4.4850478
1.6583871 -61.049068 3.8544133
-7.6644497 -59.549988 3.9633641
-3.1315377 -51.487949 3.9927373
-1.2464108 -51.398808 3.9963155
2.8102429 -50.933968 3.9668224
-1.8624517 -48.119835 3.9637291
2.4082174 -48.091805 3.9022794
4.4564161 -48.14418 3.8192785
-4.882565 -47.527523 3.975136
-2.0656121 -46.27071 3.8867223
-1.956781 -46.853207 3.9152386
2.8201618 -47.645172 3.9274609
4.2571082 -46.752808 3.9445889
-4.4939966 -44.696445 3.9978898
-2.3664944 -44.268448 3.9153292
1.8581324 -44.100494 3.8833771
3.9129255 -44.288658 3.8568509
4.1360106 -45.389904 3.8162396
-7.3316092 -43.668938 3.931375
-4.702816 -43.2854 3.9354458
-2.4636345 -43.387272 3.9175837
1.7396215 -42.75679 3.9010201
3.8143027 -43.154915 3.8602762
4.5322127 -42.971664 3.8258739
-10.905374 -40.245392 3.8279572
-4.4218912 -41.363762 3.9608641
-3.1116908 -40.618916 3.8717041
1.4028209 -40.569778 3.8562629
3.0940189 -40.875 3.9160681
-11.057483 -39.308716 3.8422019
-4.3636684 -38.000538 3.8671868
-2.9877906 -39.447517 3.859473
1.4208596 -39.394829 3.8374445
2.8557954 -38.851406 3.8875587
4.0226088 -38.965904 3.8104882
-6.7086844 -37.312885 3.9724452
-4.9888978 -36.947407 3.9213343
-3.4907968 -37.145977 3.881119
2.981909 -37.032181 3.8477111
-9.2674723 -34.364113 3.9442651
-6.8158202 -34.479225 3.9105294
-4.7582154 -34.332943 3.8372734
-3.5676112 -35.215649 3.8205619
1.552268 -34.159412 3.7934539
2.6245172 -35.058548 3.9013638
-10.847855 -32.980717 3.9405668
-9.8099451 -33.534187 3.9645209
-6.8433499 -32.47377 3.9770296
-4.7539816 -32.830116 3.9050133
-3.7940886 -33.136097 3.8494172
0.64293259 -33.001457 3.7719676
2.3393393 -33.020901 3.8350739
-7.8761034 -30.246273 3.9583726
-4.2733006 -30.923532 3.8671525
-0.015962929 -31.008156 3.7533281
0.95121479 -31.162649 3.88537
2.2267704 -31.427994 3.8381877
-10.251847 -29.036097 3.979959
-6.6365142 -28.864046 3.9322731
-4.3942313 -28.828791 3.8824549
-0.1158075 -29.738258 3.8280084
1.5000554 -29.242334 3.8725607
2.0851638 -29.4184 3.9342818
-6.6023898 -26.237061 3.9769564
-4.6086235 -26.821604 3.8301628
-12.848406 -25.33732 3.9749012
-6.1543179 -25.910248 3.9672844
-4.8719473 -24.538822 3.8886034
-0.26305491 -24.396212 3.9044592
1.0506545 -24.695755 3.9098384
2.3957067 -25.079206 3.8316207
5.7253051 -24.05081 3.9941857
-0.78274989 -23.787239 3.8532732
-5.2954993 -21.806908 3.987401
9.2609615 -80.142349 4.9356451
-22.229328 -74.30822 5.2259717
-23.117348 -72.545822 5.2337728
-8.3703566 -70.635155 5.0966907
-7.9048538 -70.199341 5.0922728
-5.0535369 -70.324303 5.0658879
-7.0818334 -69.837578 5.0845613
-5.6497502 -69.857361 5.0712986
-21.328621 -67.423813 4.7823367
-18.930933 -67.847328 4.6305199
-8.7443323 -60.174728 4.5162864
1.6376436 -61.064339 4.6741338
-8.8166971 -59.006195 4.4877052
-9.4430075 -57.567398 4.5726948
-7.0993376 -57.318069 5.0252542
-5.3601537 -56.578224 5.0183787
-2.5968564 -56.419823 5.1708913
-1.4536942 -56.640221 5.496417
5.0430651 -56.895203 4.5967512
7.111351 -56.192604 5.438529
8.4155979 -56.049641 5.2355928
-47.287979 -54.16362 5.4532576
-13.200416 -54.30394 4.6301537
-10.631004 -55.172291 4.9494042
-4.767756 -55.538734 5.5120153
-3.390276 -55.982292 5.5034456
4.9925523 -55.385296 4.4210463
7.3800807 -55.612263 5.4257007
8.2741642 -55.818993 5.4300747
-47.454884 -52.417923 5.4543819
-12.780913 -53.281395 4.6509585
-11.013379 -52.378925 4.2296619
-6.600903 -52.186863 5.0524192
-5.9115057 -52.299953 5.4565978
3.3008592 -52.792194 4.9840713
4.9532404 -53.042614 4.444993
10.922905 -52.697342 5.1038842
-47.433514 -51.540329 5.4539723
-45.101265 -50.124702 5.4320235
-6.6001954 -51.892982 5.1714411
-2.9630301 -51.563591 5.0652847
-1.39841 -51.328091 4.0019798
3.3071022 -51.020351 4.8338647
5.4750481 -51.387615 4.5681152
7.4841304 -51.071869 5.2236385
8.4787273 -50.713135 5.3245821
10.748498 -50.644394 5.264174
-48.022469 -49.839092 5.4590178
-47.956413 -49.999599 5.4584446
-34.246605 -48.446274 5.3310575
-33.922218 -48.46328 5.3280563
-10.296327 -48.750488 4.3784003
-7.3444204 -48.715008 4.739501
-3.7119849 -48.035934 5.0945964
3.5027192 -48.024719 4.7001381
4.4579573 -48.664951 4.2824211
9.7313004 -48.453632 4.9236345
10.422605 -49.862621 5.1829009
-48.02668 -46.403603 5.4582272
-47.964348 -46.728516 5.4577279
-29.726166 -47.834503 5.289031
-26.976149 -47.202984 4.6003528
-25.350304 -46.970737 4.6221991
-10.885655 -47.590595 4.5607629
-4.4550238 -47.380634 5.3231187
-3.4984183 -47.703106 4.5813241
-1.9560506 -47.593346 4.0111876
3.5804381 -47.937084 4.700736
4.4421687 -46.757488 4.3469877
7.1208282 -46.510548 4.6568136
10.304014 -46.266258 4.5813437
-48.637051 -44.184376 5.463346
-8.110219 -44.353462 4.0882874
-7.7683377 -44.771671 4.7106199
-4.2341652 -44.385811 4.8029056
-3.894506 -44.508583 4.0412898
3.897131 -44.498093 4.2782612
4.551105 -45.619766 4.3023939
6.3680792 -44.510281 4.7430182
9.1606865 -44.426262 4.8888717
10.147104 -45.706581 4.9191189
-48.719219 -43.59684 5.4639649
-26.470062 -43.44854 4.6335559
-8.0350828 -43.985661 4.1163154
-7.8813334 -43.783184 4.1378593
-5.7261453 -43.77832 4.0265465
3.7176433 -42.949123 4.2132635
5.0585341 -42.746532 4.7096643
6.7828059 -42.815762 5.0510025
9.7728205 -42.996918 4.9087257
10.062373 -43.492149 5.2116323
-26.815918 -41.569748 5.2605562
-11.189788 -40.4673 4.229609
-4.5618596 -40.728386 5.023808
-3.7810936 -40.275715 5.4027767
1.6578712 -41.632496 4.0312366
3.4872742 -40.891621 4.2511983
5.1368971 -40.936874 4.6413088
6.1954336 -40.74218 4.7417116
9.0660686 -40.827137 5.0253839
-48.926746 -38.078094 5.4645548
-12.852586 -39.476147 4.9589295
-11.510565 -39.113167 4.2491865
-4.3518238 -39.888176 5.5420837
-3.584204 -39.656033 5.4050517
3.1125963 -39.158237 4.4494538
5.1361947 -38.991009 4.4594297
6.2993531 -38.980244 4.6182265
9.145546 -39.051525 5.0294662
-49.328999 -37.062618 5.4680362
-35.736584 -37.282196 5.342165
-31.439081 -36.526569 5.0139465
-22.959072 -36.214043 4.1759391
-11.725351 -37.81538 4.2642894
-8.6839209 -37.349354 4.7412138
-6.3664417 -37.071186 4.0342741
-5.1925502 -36.938496 5.0829415
-3.3270619 -37.592224 4.0011811
3.0874527 -36.925575 4.2915258
4.8616018 -36.97155 4.4796791
6.5974112 -37.016289 4.6486988
8.8633232 -36.958168 5.0286927
-12.106555 -34.053471 4.3009634
-9.5269451 -34.129929 5.5079098
2.9501483 -35.049389 4.3323541
4.7378855 -35.012974 4.9217877
6.5454178 -35.085434 4.6933002
8.7200012 -35.227722 4.9581804
-12.724212 -32.884853 4.4710555
-10.16443 -32.624397 5.5905075
-9.3093777 -33.348839 4.8610306
-6.5554109 -32.453373 4.6150556
-5.7224312 -32.960361 4.9418936
2.63552 -33.100441 4.3196645
4.7220459 -33.057259 4.5352831
7.3119245 -32.625919 4.8407159
8.2703943 -33.394558 4.8602567
-21.19401 -30.118841 4.3669443
-14.312859 -30.816874 4.4452071
-12.919838 -31.088289 4.3125377
-9.4973536 -30.144756 4.0889168
-6.025425 -31.932949 5.5651207
1.5169057 -30.885347 4.6439948
2.844264 -31.053307 4.5290861
4.5912504 -31.127655 4.9618974
7.4535971 -31.175695 4.9992785
8.1150799 -30.730919 5.0425601
-32.537994 -29.219784 4.5476093
-12.874146 -29.795229 4.1540427
-9.6122074 -29.583134 4.8669825
-6.3740468 -29.259438 4.9620767
-5.8100801 -29.346378 4.0279088
1.7848465 -29.096167 4.1679177
3.4607284 -29.684883 4.9472761
4.6587415 -29.491184 4.7394915
7.6575193 -28.905224 4.7959805
8.3100643 -29.070026 5.1015768
-36.878323 -27.166117 4.9149785
-14.601327 -26.862532 4.3469844
-12.927194 -26.406574 4.6960878
-10.8988 -26.235109 5.0788884
-9.3243647 -26.054922 4.1483674
-6.2089777 -26.902256 5.1681914
-5.9450073 -26.310913 5.3316712
3.4464033 -26.246544 5.2305932
4.3147011 -26.350363 5.228261
7.4872551 -27.090128 4.7497101
-52.326923 -25.226717 5.4929509
-14.843524 -24.699358 4.9491725
-13.509949 -25.114595 4.2950144
-10.951867 -25.77026 5.1028104
-9.5646381 -25.024363 5.2188058
-6.4985428 -25.297119 5.0071888
-5.6288242 -24.610495 5.3606925
1.5014074 -24.806261 4.3257136
2.7178001 -25.141542 4.6904683
4.5605226 -24.767153 4.5586357
7.2854753 -24.882092 4.7430663
8.179924 -25.622341 4.7735205
-14.035961 -22.476967 4.2286634
-13.712166 -23.413782 4.2674966
-8.5994825 -22.19673 5.1820755
-6.9097128 -22.563313 4.2564168
-5.4892936 -22.155394 4.2464199
0.67298615 -23.205084 4.4825611
2.6569586 -23.540993 5.2920089
5.6401982 -22.536861 4.8727689
6.680707 -23.203375 4.5940242
8.4373322 -23.812613 4.5705247
-27.77515 -20.609465 4.5313482
-8.6277189 -21.917707 4.8313217
-6.7040148 -20.989128 4.5406504
-5.8833165 -21.181948 5.1047964
0.76519704 -21.759506 4.3116012
3.2141857 -20.733885 4.8551435
7.4289417 -20.521725 4.9382186
-37.779278 -19.198912 5.3567219
-29.91654 -18.76565 5.1239715
-14.172424 -18.541191 4.0854354
-7.1004896 -19.977057 5.4856296
-5.741179 -18.922283 4.6469169
1.7597455 -18.218672 5.4171562
2.7120874 -18.762472 5.2319355
7.4155846 -19.27169 4.9380407
-38.053329 -16.148167 5.3585238
-17.388075 -16.417253 4.9055076
-7.1717906 -17.170967 4.9818106
-5.707159 -17.478836 4.9901943
2.4799008 -17.154182 4.8130732
-6.1146116 -15.4876 4.0488887
-1.0603191 -15.477696 5.0155501
2.3850582 -15.134831 4.5915961
-25.525366 -12.783171 4.8420258
-8.1159735 -13.122243 4.8907447
-1.4762201 -6.9303422 4.6745524
2.3843439 -4.9849949 4.9812007
-12.092422 6.4656677 5.1125526
-10.942081 6.6177964 5.1018591
0.93464923 8.7787628 4.9913073
-10.715538 11.282111 5.0986333
0.65334797 10.604254 4.9934726
-10.249063 12.727415 5.0939627
-9.9949865 13.256237 5.0914812
-10.346078 16.591457 5.0939283
-10.604695 21.631718 5.0951071
-8.9124308 21.359797 5.079495
-7.5368557 21.613432 5.06669
-5.9095931 -56.90073 3.9779208
-2.6957197 -57.154041 3.958452
-4.622849 -48.717686 3.9859741
-3.7372773 -48.805923 3.9853601
-1.7443279 -48.986938 3.9713542
2.7567539 -48.462498 3.9367149
4.4180951 -48.175346 3.9072549
3.2125654 -47.817329 3.9671135
4.3435802 -47.213619 3.9708376
-6.3577442 -44.35833 3.9683528
-4.2584085 -44.804878 3.982832
3.9175282 -44.219711 3.9121101
4.1188164 -45.458881 3.8004522
-7.6501637 -43.901417 3.9568806
-2.5989387 -43.345631 3.8838754
3.8068321 -43.225399 3.9313271
-4.2892761 -40.565548 3.9636056
-3.3113244 -40.788029 3.904037
1.484441 -41.23275 3.8685782
3.4538276 -41.031174 3.9545021
-5.3230944 -39.698891 3.9929283
-3.2172346 -39.259529 3.898134
1.1678252 -38.893677 3.8548484
3.1962669 -38.8554 3.8812077
-3.3447189 -37.116024 3.8517599
1.1778835 -36.791721 3.8109212
2.8493583 -36.805214 3.8956442
-4.760458 -35.148682 3.8236661
1.5088969 -35.480038 3.8171332
2.4493232 -34.803841 3.8840966
-9.3361645 -33.481041 3.9059825
-7.0299058 -32.790554 3.9874659
-4.5585938 -33.016827 3.8674593
-3.8150885 -32.447956 3.7996957
1.9144564 -32.241249 3.7707534
2.3419592 -33.133701 3.7999704
-11.317621 -31.226242 3.8693247
-8.6356831 -30.845295 3.9308572
-6.8534026 -30.452784 3.9455631
-4.4182158 -31.033682 3.854224
-3.905493 -31.2715 3.7984347
-0.057361681 -30.307634 3.7642095
1.316654 -31.091286 3.8722506
2.218519 -31.580786 3.8670096
-9.6245909 -29.440073 3.972039
-7.3309116 -28.824703 3.9492064
-4.5581131 -29.183512 3.8988922
-0.1415461 -29.569866 3.7995558
1.0472357 -29.599537 3.8965087
2.2601104 -29.382765 3.8051224
-14.953435 -27.437065 3.7361734
-12.533638 -26.321127 3.8623159
-11.105243 -26.74658 3.9808891
-6.5446177 -26.431925 3.9303119
-4.5884142 -27.055288 3.8894889
-6.0667763 -25.863882 3.9833815
-5.2492261 -25.319433 3.9029377
-0.31266829 -24.961109 3.8513658
1.0528787 -25.011009 3.8747551
2.9607928 -25.100153 3.8014727
4.926125 -24.680405 3.8950057
6.2737947 -24.797441 3.9096158
-8.225625 -22.936104 3.8934391
-6.9632683 -22.764544 3.9290764
-5.5414386 -22.11862 3.9196694
-0.87773985 -23.578369 3.8528976
5.6391101 -23.820526 3.8770733
6.0477734 -23.950069 3.8617601
-5.3243456 -21.788073 3.8962367
-1.0795816 -21.923279 3.9446831
-5.6395836 -18.072861 3.9223816
-5.6145697 -17.879923 3.9096236
-1.6595328 -17.358751 3.8837214
0.95437384 8.5359955 3.9631934
-7.3992248 -70.053223 5.1253338
-6.6038151 -69.903702 5.1177707
-5.8221169 -69.956078 5.1106148
-25.523672 -67.041916 4.6450138
5.9638348 -65.97261 4.9960933
6.2988048 -65.877411 4.9928637
-3.6078598 -60.384621 4.5745072
-11.196518 -58.678974 4.5132337
-9.3521242 -58.194553 4.52108
-10.62464 -57.62067 5.1378984
-6.1213145 -56.795464 4.5410972
-5.9543805 -56.832481 4.5396051
-2.5573499 -56.37067 4.9093981
5.1040583 -56.476929 4.5751629
-47.235138 -54.385971 5.4719629
-10.762367 -55.193375 4.8592219
-5.5464706 -54.914974 5.0871816
5.172338 -54.964672 4.4708886
-47.487961 -52.856712 5.472177
-6.6056991 -52.346157 5.2244329
-5.800787 -52.229782 5.5351424
3.3198159 -52.794586 5.0019407
5.0296826 -53.772568 4.4980783
-47.541691 -51.460972 5.470736
-44.987175 -50.124454 5.4452577
-2.953083 -51.528553 5.1116557
3.3229177 -51.037663 4.8083062
5.3869348 -51.283733 4.5437346
7.2276998 -51.012211 5.2496839
8.972537 -50.796539 5.1727018
-44.489532 -48.945068 5.4390182
-33.927372 -48.527573 5.340765
-10.227133 -48.779152 4.2872143
-7.2600179 -48.728428 4.9355693
-4.3707008 -48.347252 4.0123186
-3.6611531 -48.058105 5.1979532
3.5028386 -48.057465 4.9939766
4.4390349 -48.597569 4.2407188
-11.262577 -47.108299 4.7094536
-4.4057655 -47.240353 5.2422705
-3.783227 -47.903008 4.7983418
3.589709 -47.943905 4.8052568
4.246202 -46.729538 4.22084
-10.810187 -45.354382 4.3281775
-8.2542038 -45.146709 5.4185314
-7.7999272 -44.578995 4.9477859
-4.2077031 -44.350765 4.736711
-3.9877014 -44.333019 5.3194389
3.9054785 -44.311291 4.1683798
4.2254782 -44.857716 4.3576312
