# .PCD v0.7 - Point Cloud Data file format
VERSION 0.7
FIELDS x y z
SIZE 4 4 4
TYPE F F F
COUNT 1 1 1
WIDTH 1491
HEIGHT 1
VIEWPOINT 0 0 0 1 0 0 0
POINTS 1491
DATA ascii
78.271553 -91.759529 -0.45443916
38.361015 -89.534683 -0.9073537
47.208923 -88.883362 -0.29848886
50.816246 -89.533096 -0.28977492
59.254501 -89.653923 -1.047915
61.604725 -89.612228 -0.69366258
62.803154 -89.716003 -0.73912394
79.179398 -89.611572 -1.045428
81.032425 -88.98922 -0.46559587
36.109985 -86.440155 -1.2496755
52.645954 -86.357925 -0.30273551
55.978161 -87.448616 -0.081736684
56.066895 -87.318481 -0.072042011
81.495041 -87.249718 -0.45656461
32.716835 -85.619171 -0.29106703
48.945408 -85.295799 -0.041232329
81.790627 -84.818878 -0.84002608
82.170631 -84.853813 -0.96719354
83.449982 -98.188858 0.017320424
85.389626 -98.017876 0.14645481
92.573509 -99.586372 0.058577955
72.889931 -96.298637 0.056858324
80.797928 -97.146965 0.094657935
83.192238 -96.926414 0.10046528
84.089935 -96.856369 0.15785182
87.840546 -97.417137 0.027862271
67.303207 -94.653519 0.038550496
69.00351 -94.468849 0.028052587
71.736122 -95.116226 0.03945313
72.718529 -95.059555 0.079764187
74.953896 -95.672173 0.055212352
85.29158 -94.070679 0.17973159
87.084328 -94.464417 0.21282955
105.23097 -94.164825 0.17705983
62.471031 -92.632668 0.0066705197
71.606461 -92.224861 0.11229608
73.0681 -92.108826 0.12984289
75.136971 -92.708221 0.16213016
76.838661 -93.210976 0.19231114
79.452217 -92.571419 0.21610856
80.787392 -92.992752 0.22472715
82.790253 -93.302269 0.27906895
84.59404 -93.820831 0.17505231
86.571182 -93.21373 0.2891131
94.786682 -93.152649 0.095447659
105.49969 -93.837517 0.20208549
61.49683 -91.132378 0.1280943
67.151093 -90.758301 0.13861339
68.524651 -90.917511 0.16523504
71.151451 -91.852928 0.26046258
72.88826 -91.874695 0.17541657
61.110409 -89.884369 0.22752976
67.473114 -88.799004 0.30230576
79.15834 -89.679199 0.35810629
81.10054 -88.920021 0.47076759
81.61277 -86.780426 0.44009173
81.764633 -84.871239 0.46200716
82.150436 -84.915604 0.45180556
75.045975 -122.80549 -2.1376736
62.985703 -120.02409 -2.1086879
67.202728 -120.91208 -2.1131909
70.67131 -121.7073 -2.1212132
62.923103 -119.96491 -2.1055572
51.310795 -108.24141 -2.005538
61.290417 -106.12788 -2.1106427
65.972214 -107.42426 -2.2055888
66.165924 -106.53123 -2.0920165
69.522636 -106.74748 -2.0937407
70.558441 -106.87419 -2.1034141
76.986519 -106.15268 -2.0450346
87.00956 -106.13729 -2.031132
59.992168 -104.30067 -2.0205667
60.944386 -105.15163 -2.0357957
65.358742 -105.53442 -2.1050632
66.337585 -105.69994 -2.2188187
77.160423 -105.17731 -2.0785623
78.520317 -104.11733 -2.0384445
80.536812 -104.52419 -2.0478327
83.160759 -105.16983 -2.0370619
61.207279 -100.03469 -2.0687685
60.612427 -99.103096 -2.0747132
81.262901 -98.263687 -2.037308
74.59938 -96.128143 -2.0236931
67.48645 -95.223335 -2.0233848
70.189468 -95.697495 -2.0040359
91.118057 -116.44946 -1.5061351
92.159966 -116.58237 -1.5014877
94.191284 -110.35748 -1.060596
51.360153 -108.15014 -1.4685103
70.464424 -108.08801 -1.7672347
89.402283 -109.06812 -0.97008801
97.758286 -109.0509 -1.5718786
98.550316 -108.94428 -1.5707474
107.34007 -109.9052 -1.7213627
51.258442 -106.93567 -1.5789007
65.349709 -106.40319 -1.5244545
66.068039 -106.40469 -1.8786428
69.66674 -107.33113 -1.734949
70.330353 -107.31267 -1.6979717
77.065674 -107.0585 -1.6770716
78.53801 -106.83836 -1.1896586
81.399902 -106.27559 -1.5164154
84.939201 -107.72137 -0.97194254
87.021584 -106.14977 -1.6541768
88.690933 -106.57956 -1.7402055
91.164093 -107.17944 -1.8649583
92.236908 -107.40424 -1.9161944
121.69594 -106.69094 -0.46005499
45.640507 -104.29305 -1.2857347
47.617332 -104.59359 -1.2801383
48.899036 -104.98489 -1.2895924
51.059765 -105.07281 -1.5891591
52.103905 -104.88994 -1.7266655
60.973053 -104.81469 -1.8944718
65.471481 -105.67563 -1.9539677
66.390877 -105.73295 -1.4484185
77.424988 -104.91672 -1.7334908
78.918404 -104.45057 -1.665025
81.000847 -104.78728 -1.6998953
82.864349 -105.45625 -1.6202165
85.063293 -105.7193 -1.7184887
86.09481 -105.93804 -1.7275211
93.088509 -104.7214 -1.1525559
111.14157 -104.09762 -0.42408404
37.788483 -102.27637 -1.2531561
38.656219 -102.62013 -1.2648075
45.292217 -103.75585 -1.2544693
47.515652 -103.3461 -1.7783525
48.985489 -103.67461 -1.7491934
50.049698 -103.88074 -1.7259915
105.29066 -102.61388 -0.40107229
106.67432 -102.9269 -1.1157715
111.23923 -103.97191 -0.41444695
36.952507 -101.66357 -1.223174
39.668255 -100.19093 -1.8431525
40.976917 -100.50945 -1.6991388
91.782928 -100.01067 -1.5483938
92.880585 -100.25104 -1.37995
94.864777 -100.71509 -1.4793169
104.89119 -101.90784 -0.35922658
106.77811 -101.18345 -1.0963856
34.50806 -98.97477 -1.9483384
36.979263 -99.568054 -1.8985533
38.675083 -99.943802 -1.8624185
61.522816 -99.480019 -1.5690451
62.031006 -99.648506 -1.7960185
81.425117 -98.302231 -1.7430198
83.133415 -98.297676 -1.4651787
85.013428 -98.598434 -1.3149855
86.500282 -98.588837 -0.92241633
89.011223 -98.97728 -0.80785966
90.79599 -99.140327 -1.2954271
92.351578 -99.594826 -0.503043
74.980186 -96.199478 -1.5540946
76.514893 -96.345383 -1.4120625
79.131538 -96.094543 -1.2637736
81.474274 -97.39521 -0.80822372
83.038048 -97.661911 -0.7712751
85.208855 -97.587067 -0.36441752
87.021065 -96.654411 -0.94648999
90.393982 -97.926521 -1.1392565
60.536621 -94.033676 -0.12122871
62.134075 -94.050148 -0.13576883
65.582893 -94.090347 -1.5837045
67.113029 -94.496582 -0.84746009
69.089287 -94.880806 -1.0133213
70.953705 -95.280769 -1.3087215
72.790695 -95.442459 -1.0554858
74.828773 -95.627327 -0.9901458
76.589989 -95.787201 -1.2962986
79.331436 -95.323265 -1.222571
80.487137 -95.804146 -1.0630481
82.231277 -95.534958 -0.96736038
85.609032 -94.149773 -0.15800415
86.358116 -94.214706 -0.47532368
53.433075 -92.183548 -1.2978022
57.49411 -92.112122 -1.2469841
58.923637 -92.427422 -1.2945495
61.234066 -92.865837 -0.8960191
62.954636 -93.367157 -0.94836152
64.857689 -93.628021 -1.0142915
66.83815 -93.188377 -0.34428439
69.230957 -93.757256 -0.61828625
71.204941 -92.393166 -0.59720874
73.332275 -92.188889 -0.72766483
75.077713 -92.704941 -0.63021857
76.309998 -93.486908 -0.55024248
79.518173 -92.640732 -0.64681345
80.74012 -92.999046 -0.54578793
82.867447 -93.324326 -0.37029272
85.213326 -93.766785 -0.72428781
86.600571 -93.160759 -0.013650068
105.6509 -93.652542 -0.59001887
106.24258 -93.379959 -0.57876885
25.919876 -91.124962 -0.66424894
38.087448 -90.365929 -0.45605391
47.270096 -90.025986 -0.92425859
49.287964 -90.33638 -0.87218535
51.227844 -90.718834 -1.4293709
53.221725 -91.522514 -1.50998
55.316238 -91.041542 -0.93694836
57.072689 -91.748695 -0.76954955
58.110306 -91.713623 -0.83198774
61.056084 -90.067253 -0.46317488
63.851467 -90.064629 -0.84238791
65.177025 -90.767082 -0.60889333
66.858009 -90.928596 -0.5929116
69.136925 -91.205353 -0.66860527
70.650673 -91.714516 -0.64027184
72.903931 -91.950768 -0.32206669
79.615349 -91.742035 -1.2033746
80.647697 -90.799576 -0.55194503
38.406326 -89.276344 -0.92337281
47.218033 -88.823921 -0.44255915
50.825729 -89.594124 -0.29898363
59.229637 -89.357918 -0.96272713
61.012314 -89.797661 -0.51829672
63.218658 -89.874992 -0.91974312
80.867874 -89.796204 -0.69109261
36.173183 -86.257446 -1.0897057
49.678223 -86.621666 -0.64716911
50.960255 -86.668221 -0.33253253
52.654236 -86.555443 -0.31302765
56.325672 -87.325661 -0.16744006
32.739155 -85.554626 -0.20491649
47.595184 -85.626434 -0.017223626
82.228928 -98.207054 0.070139684
89.108681 -98.801422 0.040178277
92.757675 -99.300728 0.13923669
81.718109 -97.478653 0.091485113
82.249062 -97.793205 0.1004011
87.801125 -97.582855 0.074949361
67.544678 -95.321014 0.021521226
68.787323 -94.797485 0.075416818
71.593208 -95.135979 0.063029461
72.555695 -95.17411 0.088856183
74.914276 -95.669243 0.072006844
85.376785 -94.149063 0.23298931
86.357063 -94.272682 0.25820416
63.435123 -93.521385 0.13144034
64.280388 -93.554947 0.10575126
66.834862 -93.675316 0.034355968
71.159157 -92.270737 0.21382147
73.430122 -92.157333 0.19422643
75.057549 -92.634499 0.20023839
76.33564 -93.50119 0.22643785
79.588333 -92.623428 0.26848689
80.566353 -93.055779 0.26687232
82.79599 -93.299011 0.20879188
86.569679 -93.180519 0.34679827
61.686798 -91.209358 0.09080524
67.429512 -90.823273 0.19903243
69.244202 -91.203461 0.17608824
70.245941 -91.669373 0.13256265
72.915085 -91.873116 0.37916243
80.688385 -90.601761 0.30454037
57.265247 -89.057068 0.29000741
61.057281 -89.828667 0.2060529
66.500061 -88.442078 0.04018873
80.863007 -89.80809 0.29776788
52.733665 -86.204849 0.01082857
75.025772 -122.83643 -2.2902348
63.024929 -120.03093 -2.1331246
67.150101 -120.94732 -2.1837487
70.641479 -121.70815 -2.2255535
77.053284 -110.00117 -2.3760011
75.759094 -108.05228 -2.3499577
77.481857 -109.82239 -2.3686991
51.626003 -106.79683 -2.1482835
61.205982 -106.08205 -2.1825721
64.908318 -106.49782 -2.0321159
66.301147 -106.46175 -2.1779017
69.402672 -107.05688 -2.1402771
70.584404 -106.86754 -2.1237535
75.671181 -107.79538 -2.2495565
76.686806 -107.11362 -2.1273751
87.473213 -106.26297 -2.0221252
51.865337 -105.68005 -2.0360112
59.985081 -104.28391 -2.0386469
61.049614 -104.82111 -2.0698686
65.335281 -105.59305 -2.0839663
66.118622 -105.88992 -2.0969324
77.152512 -105.4582 -2.0643339
79.100494 -104.1653 -2.0385768
81.843597 -104.90733 -2.0095866
82.169258 -104.93329 -2.0311706
45.482014 -102.69978 -2.0916483
49.106186 -103.75967 -2.0007915
39.967316 -100.05694 -2.1638465
40.936443 -100.36246 -2.1380382
60.860092 -99.19442 -2.1174207
60.162842 -94.027695 -2.0130436
67.193848 -94.989082 -2.0320351
60.207619 -93.804108 -2.0066316
50.917194 -110.07321 -1.9772619
48.142517 -108.11384 -1.3435668
51.341541 -108.14196 -1.8076347
69.018959 -108.00845 -1.9533697
70.193764 -108.12046 -1.7404621
77.444283 -108.04771 -1.5423517
78.394737 -108.06728 -1.5556234
49.74353 -106.73723 -1.045398
51.619522 -106.94757 -1.6666176
65.258453 -106.38831 -1.5980548
66.091919 -106.32057 -1.9170488
69.687538 -107.36403 -1.7463002
70.258026 -107.39359 -1.7182773
75.645844 -107.68912 -1.3336297
76.977295 -106.95842 -1.7658238
78.866203 -106.96838 -1.2673564
82.968735 -106.16341 -1.4623219
84.918556 -107.72501 -0.93250769
86.92202 -106.1275 -1.6027803
89.110458 -106.66634 -1.6103523
90.782059 -107.11728 -1.6764297
92.874557 -107.53848 -1.7478822
38.707054 -104.11864 -1.0939199
48.19809 -104.92325 -1.1184999
51.361919 -104.76358 -1.6579307
52.059284 -104.83034 -1.9516332
60.91354 -104.94327 -1.8970675
65.180519 -105.83472 -1.9194038
66.695908 -105.50063 -0.93065459
77.430328 -104.90339 -1.7271307
78.768341 -104.30573 -1.6897058
80.83429 -104.69208 -1.7669578
83.438965 -105.5456 -1.6193945
84.874931 -105.78722 -1.6331427
86.092361 -105.94704 -1.7191095
41.913795 -102.00784 -1.5712109
42.856384 -102.24402 -1.5638063
45.153641 -102.71113 -1.5381892
46.748001 -103.29288 -1.540341
49.160759 -103.79269 -1.6744061
50.279831 -103.94876 -1.7284994
87.904678 -103.75666 -1.0719355
88.028046 -103.72053 -1.5163341
106.58975 -103.13905 -0.79506737
111.66696 -103.96706 -0.83623946
39.352425 -100.82831 -1.4166561
40.999096 -100.93567 -1.2735312
92.846474 -100.24657 -1.1935205
94.485977 -100.65701 -1.2557926
100.88771 -101.64709 -0.70921469
104.86765 -101.89685 -0.71334493
33.988312 -98.744987 -0.73114884
35.103992 -99.023026 -1.1995026
36.930397 -99.452332 -1.1450408
38.794682 -99.878281 -1.0959909
61.383301 -99.380623 -1.5498767
62.049721 -99.599091 -1.8206872
81.035721 -98.174339 -1.710407
83.045776 -98.24044 -1.3201331
84.913734 -98.586586 -1.2962244
86.080872 -98.295441 -0.12696473
89.119888 -98.858086 -0.58049536
91.375694 -99.123672 -0.95023578
92.560944 -99.572632 -0.59119225
71.453873 -96.010452 -1.7532504
72.774765 -96.278221 -1.5977685
75.075836 -96.232887 -1.4563956
76.31868 -96.479233 -1.3637484
79.264191 -96.737099 -1.4158285
80.875801 -97.313042 -1.1139107
82.880882 -97.645325 -0.71200806
85.189514 -97.85041 -0.50478297
61.012573 -94.103867 -0.10422572
62.179783 -94.082581 -0.12247513
65.660652 -94.103485 -1.7027043
67.199318 -94.560471 -1.0670488
69.034843 -94.721901 -0.91694385
70.945427 -95.197243 -1.2271572
72.440308 -95.107796 -0.6254341
74.755333 -95.697777 -0.92047924
79.289902 -95.099876 -1.214451
80.941002 -95.135902 -0.99138153
85.353188 -94.216927 -0.23811245
86.884567 -94.382889 -0.33976236
88.337524 -94.72274 -0.44489917
103.16666 -95.557198 -1.0681758
25.926876 -92.39048 -0.31056139
27.187101 -92.3358 -0.30244052
53.364079 -92.378067 -1.4638596
57.422894 -92.164749 -1.2565109
59.058502 -92.47699 -1.2880516
60.980007 -92.950195 -0.91208273
62.860359 -93.258369 -0.97713649
64.908623 -93.60965 -1.0085808
67.110268 -93.29763 -0.56022662
68.23011 -93.462097 -0.28262603
71.089279 -92.355667 -0.54792541
72.998932 -92.143951 -0.65752947
74.680573 -92.499741 -0.70121282
76.677986 -93.609688 -0.52797776
79.667358 -92.643486 -0.60948628
80.361824 -93.126755 -0.61315888
82.918121 -93.396446 -0.47977266
85.537277 -93.796715 -0.75921828
86.469429 -93.505402 -0.38863927
105.30074 -93.501106 -0.12013001
25.848635 -91.344147 -1.2534528
37.98613 -90.297569 -1.6164875
47.133942 -90.360542 -1.179392
49.63163 -90.593735 -1.0741451
51.170227 -90.700874 -1.3531431
53.853527 -91.306824 -1.4139391
55.410206 -90.946541 -0.89911902
57.022892 -91.790695 -0.80723095
58.236977 -90.735863 -0.98838061
61.132553 -91.230598 -0.66424537
63.849182 -90.055466 -0.85651886
64.936249 -90.597954 -0.62166667
66.988152 -90.931847 -0.65609735
69.041794 -91.185829 -0.63734597
70.318832 -91.682495 -0.67305011
72.993942 -91.917061 -0.24976851
38.572384 -89.504723 -0.80011201
47.08548 -89.148987 -0.19413114
50.715523 -89.574417 -0.27339429
55.685452 -89.994202 -0.40379721
59.249462 -89.532616 -1.0267888
61.207329 -89.765808 -0.61104786
62.939659 -89.780838 -0.70386481
67.37841 -89.046135 -0.052618653
48.43856 -86.15757 -0.34848756
51.152622 -86.670845 -0.31538469
53.122089 -86.435043 -0.25757626
55.873646 -87.577965 -0.37412113
56.327431 -87.243698 -0.35406658
67.325073 -87.784119 -0.089253515
23.776806 -84.553864 -0.86404133
24.113953 -84.132622 -0.8285563
52.687195 -85.743095 -0.22787195
23.302734 -80.393997 -0.61432439
72.663437 -96.225525 0.049063444
60.888046 -94.127075 0.10880322
62.171055 -94.102921 0.062424317
67.296989 -95.206039 0.047848165
68.950638 -94.652039 0.075009957
71.56797 -94.804993 0.12769061
72.397552 -95.215088 0.081423998
74.924721 -95.6604 0.069615372
85.325111 -94.234352 0.15006004
87.015266 -94.437004 0.17887372
88.250206 -94.732834 0.18909788
55.60318 -92.041855 0.15710503
61.126617 -93.4328 0.072902098
62.54192 -93.182724 0.12373802
64.519096 -93.491043 0.1257167
67.286194 -93.192535 0.096136853
68.196198 -93.735611 0.022786012
71.136848 -92.288666 0.19942507
72.813332 -92.11097 0.16186233
74.851845 -92.394478 0.15634035
76.766823 -93.684456 0.18711071
79.713684 -92.714333 0.1272379
80.522217 -93.102242 0.11575429
82.932312 -93.47139 0.1471823
85.379196 -93.865837 0.17952254
86.538857 -93.400291 0.24516314
55.571968 -91.942596 0.16562414
61.691547 -91.293663 0.19866627
63.761559 -90.143005 0.3115449
64.255226 -90.406822 0.23749645
66.630051 -90.972542 0.23094781
69.591599 -91.291298 0.20047054
70.25885 -91.723625 0.19850689
73.02697 -91.916527 0.14804673
47.153435 -88.824738 0.012619928
50.367516 -89.940353 0.41881964
61.495991 -89.615341 0.15622406
62.72028 -89.628471 0.23459178
67.486389 -89.932182 0.0033990741
36.215153 -86.40979 0.14579985
52.977554 -86.200974 0.21726447
56.435226 -87.291954 0.15207602
24.179756 -84.790237 0.21920425
32.595207 -85.756706 0.17957529
47.77607 -85.694862 0.2353273
23.291817 -80.42968 0.52353936
63.051281 -120.03719 -2.1999693
67.266602 -120.90481 -2.2449138
51.230164 -109.05649 -2.3202262
75.024094 -108.80155 -2.3185143
51.64204 -106.94276 -2.0896347
64.513435 -106.46086 -2.1023932
70.837074 -106.83775 -2.1506541
74.362862 -107.9353 -2.1818962
76.804153 -106.69131 -2.1371994
60.999165 -104.75075 -2.1008437
65.249596 -105.56188 -2.1335342
66.401276 -105.91658 -2.1745601
77.15966 -105.68766 -2.0379496
79.83255 -104.36125 -2.0407014
80.248779 -104.43848 -2.0729108
85.293358 -105.79133 -2.033653
44.841869 -102.68076 -2.023603
83.062531 -102.72739 -2.0743873
39.898697 -100.2237 -2.0743587
40.702843 -100.44596 -2.0508282
61.574203 -100.02063 -2.1819255
59.819031 -99.204811 -2.148284
61.401348 -99.340714 -2.09588
72.983879 -96.362793 -2.0350995
67.087563 -94.523476 -2.0071557
68.160797 -95.23024 -2.0227313
112.12145 -110.81396 -1.3049992
48.197742 -108.20782 -1.1578096
50.81776 -109.35366 -1.9164337
74.350479 -108.09254 -1.4162991
77.116508 -108.02084 -1.6087689
49.394161 -106.90536 -1.0480521
51.639717 -106.93023 -1.6153817
65.249931 -106.37874 -1.5927833
66.143616 -106.23291 -1.9210949
70.666245 -107.05564 -1.928988
74.407074 -107.95322 -1.573034
77.073181 -107.18347 -1.7600294
78.608444 -106.91084 -1.3654722
80.540825 -106.36224 -1.5124071
84.930725 -107.72404 -0.90010768
87.171043 -106.17399 -1.6058216
88.98925 -106.61916 -1.6736059
91.128052 -107.14899 -1.7539166
92.32531 -107.39275 -1.7945884
38.679787 -104.26463 -1.1506946
43.675602 -105.46889 -1.2168765
48.38866 -104.8924 -1.0744252
51.388885 -104.79815 -1.6628633
52.087601 -104.86826 -1.8680307
59.972542 -104.66389 -1.9348261
60.93198 -104.93614 -1.906469
65.307335 -105.88156 -1.9112735
66.875511 -105.43913 -0.74868917
77.427727 -104.80933 -1.7762399
78.755875 -104.19695 -1.7615935
80.988144 -104.72914 -1.7705481
83.343872 -105.55286 -1.5895274
84.947792 -105.68128 -1.6042281
86.300346 -105.98551 -1.5754157
111.60587 -104.10321 -0.81477618
41.786987 -102.08625 -1.5495704
42.950115 -102.36563 -1.53958
45.05349 -102.7805 -1.5150336
47.066055 -103.41106 -1.635196
49.026634 -103.7931 -1.7346604
50.135086 -103.97113 -1.6752149
82.688202 -102.77026 -1.0908724
105.22942 -102.16535 -0.70088863
106.59155 -102.87125 -0.74664354
39.408127 -100.44651 -1.2063991
40.807232 -101.00092 -1.2864851
92.803253 -100.21001 -1.2384291
94.697693 -100.69023 -1.3102604
34.856716 -99.17099 -1.1952882
36.970474 -99.650146 -1.1267514
38.17823 -99.918373 -1.2663087
61.284206 -99.405121 -1.5294785
62.047131 -99.66391 -1.8300581
80.744064 -98.166374 -1.8661864
82.968208 -98.279945 -1.3624942
85.061729 -98.358566 -0.84145224
86.248245 -98.365852 -0.50638551
89.095383 -98.64328 -0.51409429
90.474136 -99.432182 -1.1361274
92.298897 -99.155746 -1.1499714
71.72567 -96.059052 -1.752358
72.704041 -96.223808 -1.516063
75.060646 -96.248741 -1.4701618
76.226646 -96.462753 -1.4650764
79.2024 -96.821663 -1.4581491
80.978378 -97.17646 -1.0892736
82.843033 -97.727196 -0.57071477
85.589676 -97.948364 -0.023500949
105.4135 -96.67852 -0.29738158
60.989914 -94.115639 -0.019144893
65.763481 -94.094772 -1.7138444
67.053139 -94.372391 -1.242859
68.848595 -94.870026 -1.0045732
70.867241 -95.237206 -1.2471707
72.530899 -95.311775 -0.85741919
74.757858 -95.590263 -0.85987973
80.338173 -95.418823 -0.99295491
86.76651 -94.36573 -0.38568145
88.380676 -94.760574 -0.23231091
103.25005 -95.147484 -1.0627353
53.408367 -92.19342 -1.4550005
57.509197 -92.092384 -1.3589393
59.234516 -92.448318 -1.2212936
61.233898 -92.946152 -1.0292435
63.02055 -93.309761 -1.021341
64.968224 -93.597252 -1.1125
66.796158 -93.534439 -0.54424053
68.553947 -93.568031 -0.41980633
70.695312 -92.189011 -0.57896507
73.449814 -92.208122 -0.64010596
75.051071 -92.646652 -0.66298681
76.426949 -93.511978 -1.0932646
79.794876 -92.937889 -0.71065205
80.692505 -93.059509 -0.49026334
82.70314 -93.231323 -0.48749912
85.622009 -93.782417 -0.55858988
86.084885 -93.658424 -0.16162431
105.22964 -93.355316 -0.05430223
106.19241 -92.787277 -0.0083342791
25.889616 -91.235947 -0.7233206
33.475197 -90.798164 -0.95864189
38.093845 -90.287376 -0.79874986
47.507843 -90.089874 -1.1167806
49.359604 -90.270378 -1.0038768
51.688606 -90.712921 -1.3617527
53.772121 -91.086487 -1.1659784
55.129772 -91.221748 -1.1915886
57.165619 -91.596504 -0.80058402
58.263119 -91.450684 -0.76780462
60.708481 -91.441528 -0.86257261
63.085098 -90.817451 -0.83344078
65.125984 -90.625267 -0.5436179
66.732048 -90.957184 -0.63579512
69.088806 -91.196686 -0.68294078
70.350548 -91.674843 -0.58185041
26.106438 -89.64003 -0.13324136
37.721138 -89.204033 -1.4279622
38.511398 -89.508484 -0.73594666
47.225071 -88.708801 -0.45472279
49.910843 -89.794037 -0.76982254
50.762329 -89.609779 -0.39409322
55.627346 -89.519257 -0.23848261
57.004822 -89.230118 -0.71910465
59.086941 -89.273544 -1.0893446
61.117123 -89.769478 -0.64303744
62.969429 -89.736885 -0.71193683
64.20665 -89.726349 -0.2503562
35.024315 -86.93721 -0.65766054
36.352425 -86.286026 -0.58014035
51.831562 -86.648407 -0.5323661
52.710663 -86.339966 -0.3498694
55.187222 -87.084091 -0.44603172
57.135441 -87.243866 -0.39473477
58.144371 -87.444458 -0.69138867
62.417152 -86.460556 -0.01229021
32.852032 -85.742409 -0.63655764
34.561844 -85.973366 -0.60669404
36.429279 -85.900101 -0.55307484
45.789093 -84.756355 -0.24510401
46.821003 -85.236526 -0.24951822
56.113022 -85.436913 -0.057239212
43.101723 -83.812828 -0.2524994
23.509655 -80.149994 -0.5174191
23.418663 -79.938698 -0.50615633
72.852921 -96.193901 0.080835305
83.396156 -96.417351 0.02919358
59.905888 -94.015877 0.19150132
60.697857 -94.062836 0.12477622
62.166988 -94.080482 0.12026695
67.087769 -94.544022 0.094532147
68.960434 -94.980461 0.081746452
71.215919 -94.769531 0.115306
72.368729 -95.167717 0.10633056
74.930748 -95.646294 0.069875859
85.488548 -94.318176 0.24701387
86.787659 -94.392853 0.27686372
59.326447 -92.57766 0.11640117
60.896683 -93.691795 0.099027507
62.545021 -93.200111 0.14722392
64.881485 -93.519119 0.11655712
66.837723 -93.367058 0.1266996
68.28318 -93.77755 0.086354584
73.657257 -92.15432 0.22086386
75.195717 -92.627701 0.2144246
79.981232 -93.012512 0.20124221
80.652748 -93.077621 0.2138629
82.818436 -93.327393 0.25207421
85.71888 -93.780487 0.29509291
86.511703 -93.474991 0.3405571
55.787102 -90.067802 0.26370567
56.939358 -90.693375 0.19298713
58.086735 -91.269257 0.12622607
61.722614 -91.357552 0.11284363
62.022949 -91.322189 0.11288273
65.18795 -90.728981 0.24168988
66.256134 -91.192802 0.2003039
69.374825 -91.248543 0.11038756
70.17543 -91.624985 0.087980002
47.202911 -88.668938 0.26102164
50.788624 -89.479088 0.28428012
55.736263 -89.971596 0.27283865
57.264053 -89.837784 0.2639643
61.443951 -89.691933 0.21963651
62.647762 -89.52346 0.25276086
64.240334 -89.830246 0.25802711
36.26598 -86.224068 0.16261007
52.458088 -86.308838 0.22834356
56.953548 -87.10862 0.27151403
62.520008 -86.588356 0.25254273
24.486589 -84.208031 0.25822547
32.704559 -85.44709 0.20380743
34.496574 -85.85611 0.1817522
36.371059 -85.847649 0.19070333
44.532276 -84.242485 0.34477642
46.511734 -85.144958 0.28733891
52.865356 -85.960373 0.25572813
56.093925 -85.568985 0.46051857
43.051403 -83.916756 0.36210179
62.328236 -82.746689 0.17598104
25.285278 -80.087311 0.56420195
28.800385 -80.98764 0.51374567
23.45665 -79.735107 0.58192456
25.081827 -79.887909 0.577932
75.042679 -122.77931 -2.1694541
79.215561 -123.73399 -2.1888835
67.155434 -120.95645 -2.1314509
70.659775 -121.73549 -2.1461926
67.861176 -108.01796 -2.3578465
73.127327 -108.84528 -2.3184216
51.576805 -107.19446 -2.0834908
64.512291 -106.09677 -2.2464733
67.194359 -106.14884 -2.3103974
69.29863 -107.28532 -2.0982182
70.842751 -106.87024 -2.0004387
59.911533 -104.44736 -2.0541255
60.896008 -104.60941 -2.0362809
65.297592 -105.51819 -2.1485455
66.194824 -105.83437 -2.1320834
77.22905 -105.06824 -2.0533381
78.510246 -104.08829 -2.0162902
41.569702 -100.66922 -2.035835
61.854557 -100.44268 -2.1662202
77.304482 -101.83454 -2.0714293
78.307846 -101.92283 -2.1556926
59.535 -99.811348 -2.1355512
61.14027 -99.314903 -2.1035893
62.049263 -99.792465 -2.0815673
67.864357 -95.312065 -2.0079889
90.857063 -116.51879 -1.5572156
107.29778 -110.04375 -0.92305005
48.28619 -108.15153 -1.0179582
50.95647 -109.08002 -1.7722477
72.708778 -108.37885 -1.4013593
107.29692 -109.76122 -1.9747149
44.612152 -106.82906 -0.91256553
47.857063 -107.89435 -1.0005574
49.869953 -106.92879 -1.1564243
51.179428 -107.07664 -1.5312839
65.170334 -106.34609 -1.498952
66.065399 -106.25897 -1.8208786
69.729446 -107.33881 -1.6915869
70.397293 -107.10088 -1.8457215
76.867104 -106.96333 -1.8531153
78.647858 -106.60044 -1.0450053
84.892372 -107.76327 -1.0162865
88.986763 -107.16618 -1.5775193
121.77087 -106.65924 -0.52555537
40.742027 -104.32866 -1.2735474
43.511589 -104.71375 -1.0566326
45.151691 -104.59648 -1.2426301
47.261009 -105.21827 -1.2621175
48.781719 -105.49214 -1.2611556
51.411026 -104.63965 -1.6669359
52.058914 -105.06362 -1.7192483
59.863243 -105.08684 -1.8896608
60.874161 -104.90176 -1.8625771
65.217056 -105.70457 -1.9493167
66.562332 -105.60862 -1.1059332
77.427879 -104.80606 -1.7401196
78.813698 -104.21471 -1.726251
81.069641 -104.74483 -1.7679894
82.981506 -105.19434 -1.8680233
84.11364 -105.42509 -1.9242662
110.82851 -104.11247 -0.4715943
37.331799 -102.28671 -1.1700646
38.634079 -103.05417 -1.2087271
41.703701 -102.10817 -1.6231692
43.15094 -102.63409 -1.5388017
45.213982 -102.81367 -1.6244285
47.059261 -103.33643 -1.6982496
48.982288 -103.75267 -1.6731309
50.182369 -103.95473 -1.6432923
77.304611 -102.02371 -0.9667877
101.5312 -102.15761 -1.3419045
103.0862 -102.5943 -1.3920515
104.50652 -102.31874 -0.41803917
106.31084 -103.02242 -0.44663659
36.363972 -101.96523 -1.1586107
39.398582 -100.589 -1.3919626
40.870121 -100.87037 -1.3546667
77.385193 -101.75939 -1.2612373
101.03395 -101.31978 -0.82819736
103.12272 -101.34938 -0.36627331
104.65369 -101.82197 -0.38189566
27.45743 -98.733582 -1.0342399
28.686096 -99.072899 -1.2397618
35.087025 -99.198311 -1.3084335
37.019249 -99.637573 -1.2721286
38.29517 -99.930511 -1.2875365
61.254349 -99.374161 -1.5656585
62.042274 -99.66082 -1.6908988
83.183502 -98.14119 -1.0719442
85.144363 -98.073082 -0.85282588
88.92173 -98.753456 -0.4457458
91.666397 -99.638824 -1.0426614
92.645172 -99.550858 -0.35904416
47.907497 -96.787872 -0.90482426
48.280354 -97.006203 -1.3423418
72.401169 -96.187759 -1.6752961
75.234848 -96.250694 -1.4123918
76.166542 -96.550026 -1.5341748
79.225998 -96.950287 -1.4797802
81.049767 -97.112106 -1.0109278
82.966537 -97.665398 -0.71609694
85.72345 -97.621063 -0.82794112
105.5166 -96.844208 -0.42091346
60.840843 -94.058823 -0.42391795
65.347702 -94.060097 -1.4717935
67.2192 -94.604439 -1.0115737
68.898163 -94.762291 -1.0216795
70.732086 -95.223137 -1.1923002
72.466179 -95.279701 -0.82640135
75.007988 -95.62056 -0.77324557
85.46875 -94.025452 -0.32290691
86.014977 -94.17572 -0.59476256
88.387146 -94.71463 -0.65935242
106.20814 -94.349091 -0.84826922
53.370434 -92.249313 -1.4314698
57.558857 -92.086555 -1.2477466
59.141563 -92.420135 -1.1939237
61.157948 -93.032906 -1.0497829
63.037247 -93.29467 -1.2852068
64.667404 -93.63018 -1.1012747
66.763023 -93.322311 -0.48042724
68.88369 -93.630348 -0.5988422
70.97654 -92.331612 -0.62898546
73.166626 -92.174103 -0.7612499
75.296173 -92.831497 -0.58682638
76.46714 -93.543961 -0.68760908
80.119415 -93.066406 -0.049466282
85.794975 -93.871758 -0.83919317
86.086617 -93.908066 -1.1187075
105.774 -93.739166 -0.8015613
106.33505 -93.926987 -0.82104206
21.532349 -90.174965 -0.50653815
37.694595 -90.417358 -0.879439
47.218616 -90.203529 -1.1536009
48.940536 -90.472244 -1.1027436
51.419987 -90.591957 -1.2497704
53.694069 -90.840591 -1.0243484
55.20594 -91.357742 -1.2202611
57.079384 -91.689545 -0.77094573
58.98637 -91.349457 -0.86925882
61.331276 -91.718445 -1.053728
63.83025 -90.034866 -0.63289785
65.02858 -90.546219 -0.53791142
67.006218 -90.978554 -0.5784809
68.365883 -91.037331 -0.75088274
70.508812 -91.725563 -0.664316
73.241554 -91.95665 -0.17862046
17.302015 -89.187401 -0.48546994
37.710869 -89.499878 -0.8951875
44.942635 -89.509323 -1.5512745
47.253063 -88.719528 -0.33148396
50.859875 -89.598457 -0.45644453
55.268135 -89.002846 -0.8207497
56.931061 -89.198166 -0.9278903
58.967442 -89.47068 -0.90459645
61.144478 -89.739578 -0.53724766
62.964809 -89.736504 -0.59379071
64.29557 -89.960976 -0.16980734
33.599228 -87.240654 -0.88822693
35.397938 -87.164062 -0.91299415
36.318718 -86.296356 -0.071220271
47.491455 -86.192764 -0.81674576
48.978539 -86.232407 -0.54742378
51.340149 -86.687241 -0.57912129
53.080444 -86.289726 -0.42796525
55.165359 -87.004593 -0.42725357
56.900585 -87.226067 -0.40972263
58.391502 -87.453735 -0.50368106
32.709557 -85.625961 -0.065198302
36.423206 -85.906677 -0.042990997
44.860497 -84.308182 -0.35004601
47.928474 -85.792221 -0.34030917
48.879772 -85.932541 -0.31962121
56.196575 -84.956726 -0.071261331
82.195839 -98.377136 0.049583908
72.811661 -96.225883 0.10022353
81.06958 -97.196594 0.091091566
82.79789 -97.047798 0.16121367
60.381092 -94.087646 0.086174503
67.166611 -94.906754 0.075682171
68.617073 -94.783524 0.056134306
71.831665 -95.068924 0.13032237
72.333923 -95.369713 0.13623409
102.83031 -95.35125 0.046897143
105.31807 -95.04879 0.095830232
59.823292 -93.388786 0.052622121
60.967606 -93.538635 0.093439505
62.642464 -93.404243 0.087776519
64.540833 -93.608406 0.10390747
66.623337 -93.186234 0.14611492
68.402924 -93.74781 0.052388906
71.118813 -92.298538 0.11401987
75.647209 -93.06884 0.20255291
76.599815 -93.600761 0.19458763
79.970474 -93.015892 0.35263857
80.318916 -93.127831 0.35616627
53.793171 -90.875549 0.062563509
55.595371 -90.682816 0.22741356
57.052563 -91.031517 0.19678991
58.071171 -91.173683 0.0080231829
61.410198 -91.286995 0.14606661
65.182938 -90.676468 0.24433814
66.835281 -91.007431 0.24364384
47.180923 -88.71685 0.29734424
50.794296 -89.572495 0.19493878
57.303623 -89.485031 0.31922066
60.946255 -89.757141 0.15084119
63.054508 -89.614067 0.25770918
64.23362 -89.788139 0.33821934
52.884682 -86.251144 0.28709057
55.304867 -87.078972 0.17166167
56.83667 -87.252167 0.22442017
58.244476 -87.224594 0.19850308
43.776627 -84.132027 0.16278949
47.315086 -85.386749 0.32624859
48.470371 -85.608551 0.30442753
50.085175 -85.434784 0.14317173
52.893478 -85.923515 0.14077085
43.049862 -83.908409 0.17015512
65.310532 -80.579277 0.65124518
37.863808 -79.349434 0.42845759
63.023941 -120.03687 -2.1246314
67.144363 -120.87971 -2.1488504
70.634201 -121.75818 -2.1807671
51.339828 -108.19576 -2.1193066
51.660641 -106.95097 -2.1626706
59.484962 -106.04685 -2.1410332
64.446609 -106.47397 -2.1391382
76.888748 -106.95005 -2.0433373
49.980484 -104.03719 -2.0422869
51.107445 -104.73186 -2.058409
52.037029 -105.12101 -2.0504665
59.770634 -105.26468 -2.1244628
60.295532 -104.45522 -2.0938625
64.675926 -105.78598 -2.1389754
47.858837 -103.4322 -2.1132171
49.067207 -103.71526 -2.0645838
50.011219 -103.92194 -2.0272987
61.445602 -100.39157 -2.1845388
36.644161 -99.403877 -2.0292447
60.948826 -99.341705 -2.1106853
88.83033 -118.23461 -1.7858268
89.034897 -117.99327 -1.7674133
107.30406 -110.05436 -1.0660226
109.72511 -110.41604 -1.0710025
112.13178 -110.83644 -1.0801687
48.149876 -108.15574 -1.0221671
107.34429 -109.88745 -1.0541275
43.748993 -107.30188 -1.1699221
44.46032 -107.03287 -1.0779541
47.898758 -107.59087 -0.99024057
49.521564 -106.79199 -1.0941221
51.62571 -106.77406 -1.6635725
65.036423 -106.4725 -1.5687777
77.147682 -106.90219 -1.6497837
78.542992 -106.4892 -1.178302
38.704262 -104.17875 -1.2277946
43.608738 -105.35055 -1.0452843
47.888447 -104.13369 -1.4960238
48.901814 -104.38857 -1.3989694
51.15604 -104.70491 -1.6735991
52.088978 -104.76774 -1.7960428
59.87043 -105.57753 -1.9017804
60.71627 -104.9058 -1.902576
64.721977 -105.88583 -1.9047402
77.360031 -104.96538 -1.8726509
79.134377 -105.29073 -1.5664815
81.036255 -105.10347 -1.471987
83.127769 -105.24483 -1.5103699
35.200741 -103.9259 -1.2393281
41.848312 -102.08679 -1.5091375
42.896404 -102.35865 -1.6784821
45.022026 -102.75349 -1.649982
46.950745 -103.43352 -1.6347835
49.068657 -103.71516 -1.7522303
50.166058 -103.90753 -1.7209768
105.96154 -102.76065 -0.57192659
106.56639 -103.01923 -0.58482349
39.596596 -100.34969 -1.2401507
40.979393 -100.72878 -1.2698352
63.303867 -101.44044 -1.1405826
64.078751 -101.78302 -1.1875623
72.382507 -100.36979 -1.1339005
33.896637 -98.808807 -1.1007873
35.083851 -99.088585 -1.1806769
37.112015 -99.555954 -1.3077631
38.515587 -99.874939 -1.4161875
61.00819 -99.356483 -1.5252286
83.372467 -98.088837 -0.43560416
88.541748 -98.902519 -0.61395741
92.401932 -99.584686 -0.46435595
71.662025 -96.046356 -1.7200819
72.78727 -96.24102 -1.6316816
75.526703 -96.305061 -1.1439496
76.158928 -96.401329 -1.2436373
79.21566 -97.029121 -1.4678303
80.882767 -97.345245 -0.8419832
83.127693 -97.645332 -0.69705069
105.76614 -96.251961 -0.12269735
106.07953 -96.01638 -0.10378069
65.610382 -94.06575 -1.6934999
66.959991 -94.453476 -0.9950431
68.951263 -94.775215 -1.0182837
70.848289 -95.233208 -1.1465081
72.393219 -95.264923 -0.62927628
75.067352 -95.653526 -0.71422082
53.364449 -92.264992 -1.4477785
57.593628 -92.179237 -1.4491867
59.067986 -92.395203 -1.2660722
61.123539 -92.630898 -0.69137502
63.071957 -93.162285 -1.1699966
64.753189 -93.523872 -0.97672385
66.715927 -93.324715 -0.61563253
68.811317 -93.540474 -0.38192838
71.01107 -92.300659 -0.63621408
73.071053 -92.16256 -0.63944483
75.63063 -92.981392 -0.60940778
76.147308 -93.147484 -1.1491381
83.202667 -93.650932 -0.30752113
25.926273 -90.995941 -0.62153018
37.039948 -90.048523 -0.81847012
47.178074 -90.232941 -1.3135568
49.058308 -90.491226 -1.0980278
51.4921 -90.624008 -1.2336235
53.708878 -91.087311 -1.1219962
55.215755 -91.315605 -1.1121746
57.100422 -91.679169 -0.77825826
58.816307 -91.337959 -0.90850294
60.820305 -91.65535 -0.92541569
63.670696 -90.343384 -0.81446642
64.838356 -90.475243 -0.67992502
67.091835 -91.012688 -0.59400558
69.231201 -91.257881 -0.73701084
70.473457 -91.78051 -0.60902888
21.654495 -89.902321 -0.38024476
24.879295 -89.883591 -0.35221016
37.482723 -89.570084 -0.83581662
38.225029 -89.304558 -1.2702225
47.183739 -88.733261 -0.26391333
50.843601 -89.556824 -0.49778911
52.124332 -88.973137 -1.0237626
55.19817 -88.625717 -0.86488581
57.170143 -89.261375 -0.93768889
59.341087 -88.779709 -0.65914851
60.966007 -89.777107 -0.51580006
63.133076 -89.795265 -0.56944853
64.216309 -89.896149 -0.35488924
35.239288 -86.796654 -0.66883034
36.340031 -86.324585 -0.50839156
49.412586 -86.426155 -0.62726253
51.14949 -86.740952 -0.53018612
53.479641 -86.423111 -0.61186552
55.147884 -87.10482 -0.51749682
57.042065 -87.246559 -0.40582675
58.654652 -87.649628 -0.44434536
66.799667 -86.348709 -0.21665172
36.463432 -85.879379 -0.57618672
47.283482 -85.480415 -0.24440604
48.895348 -85.9048 -0.22529104
56.190964 -84.980247 -0.019000016
51.447807 -83.078033 -0.017668083
30.919722 -81.815048 -0.49691728
80.901817 -96.877342 0.10921209
66.963409 -94.717133 0.11321316
68.749687 -94.311996 0.1077195
74.959381 -95.662872 0.0050041378
59.108326 -92.28421 0.13391007
60.84721 -92.630043 0.12967429
62.541958 -92.709381 0.15762082
64.560654 -93.46209 0.097779661
66.563698 -93.272278 0.15019077
68.14473 -93.718811 0.12190896
70.760452 -92.295349 0.11848345
75.434326 -92.974915 0.21207266
53.755417 -90.919556 0.14367677
55.435276 -90.861801 0.17305186
57.033226 -91.299156 0.16368344
58.035828 -91.288742 0.17300346
61.209629 -90.74794 0.18595779
62.042999 -91.380768 0.18796527
65.850876 -91.09626 0.15775238
66.798897 -91.094681 0.18277915
68.481781 -90.905731 0.31037655
70.493134 -91.879005 0.14244807
47.208141 -88.767738 0.25299191
50.686569 -89.619286 0.1429227
55.69397 -89.548004 0.21189177
57.114471 -89.485222 0.32861978
59.567963 -88.319839 0.24268374
60.964321 -89.803825 0.22459263
63.312691 -89.716431 0.27066022
73.87558 -89.173973 0.10317829
36.407127 -86.073807 0.0072676688
51.622215 -86.513428 0.24922973
53.667145 -86.348251 0.2441332
55.572956 -87.377808 0.21526614
57.182549 -87.20649 0.2588045
58.540474 -87.487495 0.27948561
66.783356 -86.299294 0.30378267
32.787888 -85.488708 0.017789461
36.46841 -85.857018 0.02279239
44.823158 -84.480255 0.18742946
47.336693 -85.492088 0.32932949
48.732655 -85.49556 0.33240393
50.146782 -85.526924 0.24241437
56.270489 -84.684982 0.36459973
66.908913 -85.74649 0.3286418
43.17115 -83.365921 0.25092152
47.857578 -83.641182 0.53849548
51.375019 -83.087112 0.69706851
56.466618 -83.742798 0.31668633
25.240927 -80.188484 0.32235727
28.365154 -81.242058 0.27528071
31.02042 -81.704239 0.2652812
23.463062 -79.780991 0.33584267
61.52874 -126.12099 -2.4548995
47.1334 -124.55157 -2.3767452
53.131611 -124.20795 -2.343925
55.046597 -124.606 -2.3667283
57.054367 -125.09891 -2.3955879
59.005207 -125.54086 -2.4212072
60.602226 -125.89851 -2.4419088
45.588051 -122.49102 -2.2443407
46.701057 -123.01207 -2.2765806
49.391407 -123.44975 -2.3006506
50.97504 -123.6931 -2.3138826
52.131023 -123.9724 -2.3302047
75.042236 -122.77362 -2.2123017
63.028214 -120.0363 -2.0535097
67.253571 -120.91249 -2.1036854
70.673386 -121.73412 -2.1516685
50.926727 -110.06007 -2.1632521
51.06662 -109.34016 -2.0822144
51.683849 -107.02433 -2.1094778
64.459099 -106.51563 -2.0832021
69.231987 -107.66271 -2.032871
70.698799 -106.85582 -2.0019789
49.772339 -104.10007 -2.0770469
51.01886 -104.24759 -2.0261052
52.048115 -104.98258 -2.079622
59.805355 -105.53696 -2.1028812
60.672714 -104.50618 -2.1318688
64.76886 -105.84427 -2.0124781
47.869446 -103.42815 -2.1162224
49.031044 -103.71913 -2.0743825
39.533222 -100.12505 -2.0546191
40.388096 -100.67316 -2.0432298
60.959064 -100.26404 -2.1664381
60.876888 -99.249687 -2.1123097
67.932724 -99.504898 -2.0346158
68.440323 -99.604958 -2.0998905
71.759689 -111.06561 -1.4502432
47.861465 -108.00688 -0.92868638
48.150249 -108.17771 -1.0123675
51.465096 -108.09474 -1.7761486
70.167603 -108.06691 -1.6771683
40.269638 -106.27544 -0.93279564
43.9268 -107.31332 -0.83985472
44.411736 -107.10455 -0.89856046
47.915329 -107.48123 -1.0233341
49.533085 -106.78316 -1.0480278
51.42395 -106.83875 -1.5329527
65.189598 -106.50074 -1.5889945
66.047119 -106.38857 -1.8106793
69.805336 -107.28845 -1.5838499
70.243835 -107.00548 -1.6827289
38.659302 -104.17767 -0.85239506
43.677525 -105.42109 -0.96230602
45.669624 -104.19092 -1.3804122
46.919315 -104.6396 -1.3919924
48.844715 -105.10954 -1.3362461
51.151539 -104.58394 -1.6337256
52.105576 -104.96412 -1.7395372
59.894817 -105.55598 -1.909391
60.696236 -104.86062 -1.8860805
64.994431 -105.56673 -1.9876199
77.386551 -104.86649 -1.5523634
39.038528 -102.39728 -1.3900646
41.115555 -102.61185 -1.4891915
43.177212 -102.82578 -1.592961
44.96701 -103.00271 -1.6711183
47.002205 -103.30331 -1.729795
49.01757 -103.73266 -1.6772425
50.23315 -103.931 -1.628106
106.85342 -103.04272 -0.86444861
39.409935 -100.13977 -0.94805932
41.012787 -100.70632 -1.2082095
79.89698 -101.80033 -1.5621014
80.218994 -101.75963 -1.2128439
93.289772 -100.01955 -0.68958056
25.699669 -98.235199 -1.423461
29.130829 -99.024719 -1.3919185
33.841557 -98.839935 -1.2641541
34.961998 -99.112305 -1.2371399
37.004353 -99.593117 -0.99966574
38.401031 -99.907852 -1.0972834
60.987293 -99.335716 -1.4904034
67.470383 -99.52578 -1.0759122
83.221527 -98.085052 -0.88455254
91.801529 -99.710495 -0.67187828
92.213272 -99.636925 -0.66634941
-0.20326424 -96.832237 -0.64116246
72.542587 -96.17334 -1.5368671
74.626663 -96.16494 -1.28286
79.357468 -96.994781 -1.2885685
80.820435 -97.32502 -0.92468357
82.932419 -97.762634 -0.75726557
60.755417 -94.088455 -0.7432161
62.19875 -94.013489 -0.10657486
65.658562 -94.020584 -1.4321798
66.984886 -94.408028 -1.2799791
69.025101 -94.84549 -0.99290079
70.788292 -95.192223 -1.1329203
72.518303 -95.430031 -0.7340157
74.90889 -95.596451 -0.43121713
-1.3041992 -93.698868 -0.43767801
27.106548 -92.253914 -0.29419923
53.358074 -92.263138 -1.5526985
57.517365 -92.154648 -1.4650843
58.828941 -92.393257 -1.2423261
60.925571 -92.827919 -1.0139633
62.976452 -93.173195 -1.1693825
64.734657 -93.513863 -0.97488856
66.886009 -93.481781 -0.46877733
68.419174 -93.449829 -0.12683375
70.688606 -92.241257 -0.66634631
73.747765 -92.260948 -0.64896274
75.180183 -92.849945 -0.56214327
76.35183 -93.473877 -0.62481362
82.748535 -93.244591 -0.26361665
21.396564 -90.28109 -1.0153675
25.899069 -91.142357 -0.3454963
26.885878 -90.99482 -0.21205242
36.744251 -90.03833 -0.87133944
47.314148 -90.231361 -1.2706274
49.003727 -90.449638 -1.0937603
51.269268 -90.704231 -1.2484324
53.599655 -90.866615 -1.0855743
55.261101 -91.193573 -1.1366626
56.87077 -91.669067 -0.80940199
58.545338 -91.586014 -1.001573
60.85471 -91.621529 -0.95310301
63.672916 -90.225204 -0.65017223
65.170486 -90.664642 -0.63510972
66.984428 -91.018188 -0.50031459
68.997543 -91.18734 -0.65558732
70.393646 -91.85038 -0.7232675
25.440458 -89.750084 -0.13294825
26.530622 -89.403343 -0.10834958
37.110825 -89.620689 -1.0753326
38.23447 -89.225777 -0.87409633
47.126183 -88.824348 -0.25668272
49.949047 -89.738609 -0.30092159
50.99976 -89.574944 -0.62592304
52.056484 -89.011604 -1.0608833
55.4869 -89.135025 -0.73907572
57.307442 -89.112411 -0.93070358
59.341309 -88.977051 -0.64098835
60.800247 -89.354874 -0.57254863
62.916348 -89.767982 -0.69609058
64.314995 -89.930695 -0.21769524
66.304535 -88.36853 -0.24060439
35.823498 -87.146561 -1.014189
36.25333 -86.281303 -0.41831255
49.169094 -86.19693 -0.53292918
51.350891 -86.661896 -0.48281246
52.877922 -86.407707 -0.59584135
54.86039 -86.885368 -0.45294204
57.356735 -87.237839 -0.39699098
58.553383 -87.615433 -0.44009352
66.064629 -86.696777 -0.15303083
23.865799 -84.043877 -0.58047944
36.347149 -85.884247 -0.39392075
42.833027 -84.695389 -0.6088807
47.710651 -85.567505 -0.13913955
49.09808 -85.670975 -0.20213945
14.188286 -82.374794 -0.71384639
16.529928 -82.857292 -0.68609118
23.915974 -83.876167 -0.56957561
32.579201 -82.107086 -0.27063411
34.247646 -82.065742 -0.23173916
36.626625 -83.300819 -0.80560428
10.901821 -81.548363 -0.74405783
33.287666 -81.95462 -0.24677619
60.556984 -94.160217 0.066068038
62.147942 -94.074364 0.089925237
67.020599 -94.850555 0.063474767
55.764267 -92.17897 0.10485387
59.548534 -92.872536 0.13142939
60.605236 -93.164268 0.083510324
62.31879 -92.900734 0.08952111
64.697113 -93.515869 0.049529433
66.58638 -93.587143 0.13326824
71.349854 -92.43634 0.10617951
53.752365 -90.878273 0.17618005
55.617367 -90.709244 0.2055596
56.948257 -91.248009 0.14854763
58.064808 -91.292091 0.12447851
61.280697 -91.381218 0.15966783
62.583012 -90.980263 0.11202089
65.243111 -90.812256 0.11976084
66.479546 -91.09523 0.087940529
69.860435 -91.235924 0.15634032
47.135597 -88.770844 0.23822165
50.663044 -89.604019 0.22749083
53.794399 -89.210693 0.44945645
55.241119 -89.410454 0.27645016
57.253994 -89.635406 0.24058975
59.594299 -88.401215 0.21774919
60.673492 -89.015274 0.22397752
62.519131 -89.490486 0.21168508
64.4785 -89.889709 0.35416868
66.275963 -88.501144 0.159848
36.233665 -86.289253 0.11241724
51.722759 -86.522858 0.3610498
52.607876 -86.381126 0.37987602
54.952213 -86.904984 0.19869487
57.503155 -87.206642 0.23203866
58.551594 -87.569054 0.24790151
66.386032 -87.629166 0.16236934
32.666679 -85.480965 0.15927285
36.344658 -85.85733 0.1409179
42.818737 -84.790184 0.49943697
47.742931 -85.597359 0.33642235
48.689507 -85.372314 0.34754732
50.496353 -85.632385 0.30687749
52.831505 -85.972923 0.161643
32.80611 -82.140755 0.3784436
35.54541 -82.742409 0.34371066
36.519505 -83.025612 0.32682094
48.433849 -83.490364 0.54827404
51.596012 -82.53257 0.46108964
52.060291 -82.455055 0.71715444
56.717926 -82.94136 0.36701572
25.275698 -80.127052 0.49750313
28.794048 -81.116959 0.43866006
31.029999 -81.754974 0.40068004
33.038574 -81.82914 0.39926705
67.240128 -120.87489 -2.1538405
72.360184 -112.44267 -2.1647077
51.473358 -108.82121 -2.3331356
47.733467 -104.01133 -2.0512195
49.035469 -104.25846 -2.0212388
51.173721 -104.69474 -2.0663524
52.093338 -105.20542 -2.0646393
59.973572 -104.80087 -2.1185143
60.1931 -104.47363 -2.081377
65.941147 -105.57376 -2.2190199
66.882042 -105.57288 -2.2676315
45.703785 -102.83808 -2.0182188
46.755913 -103.30618 -2.0125721
48.846107 -103.80995 -2.0705733
50.14856 -103.88472 -2.1578059
60.659325 -99.398506 -2.0843289
63.396599 -98.918327 -2.0888712
48.143173 -108.15009 -1.0999025
39.996212 -106.19591 -1.2000539
40.262867 -106.28316 -0.91679132
43.768051 -107.3879 -0.90272355
44.429146 -107.15304 -0.97274059
47.802437 -107.42572 -1.112669
49.515083 -106.78735 -1.0656215
51.428268 -106.6348 -1.3161008
65.310623 -106.09605 -1.8188791
69.764015 -107.56138 -1.4232293
70.173462 -107.58008 -1.5725152
76.872055 -106.91779 -1.7980624
78.626556 -106.64314 -1.1823369
34.944981 -104.73064 -0.6089673
38.709785 -104.14718 -0.85639966
43.683125 -105.39369 -0.94731683
45.829018 -104.12508 -1.3383856
46.960983 -104.45623 -1.3484368
48.984688 -104.83345 -1.3847494
51.055199 -104.52882 -1.6575724
52.07618 -104.70878 -1.7355601
59.796062 -105.78369 -1.9849799
60.354191 -104.86897 -1.8872402
65.606133 -105.78381 -1.871374
66.634666 -105.45535 -1.0178511
77.119766 -105.82727 -1.7181704
79.026894 -104.21881 -1.6341832
80.954315 -104.66198 -1.7073243
97.120819 -104.5075 -1.0157801
39.428574 -102.44453 -1.3307143
41.168991 -102.81895 -1.4717824
43.015614 -102.65771 -1.6019764
45.006977 -103.06873 -1.5507934
47.043205 -103.32069 -1.7067848
48.992813 -103.7601 -1.6963717
50.180653 -103.92379 -1.6130627
107.17908 -103.26039 -0.91943705
39.390114 -100.16981 -1.1513542
40.966995 -100.79379 -1.3076259
25.43124 -98.237259 -1.3544931
26.864149 -98.561668 -1.3423207
29.101965 -99.040154 -1.321735
30.482874 -99.343269 -1.6875035
33.902901 -98.89978 -0.90845603
35.029163 -99.167908 -0.96539897
37.092865 -99.632217 -1.0802816
38.373184 -99.917168 -1.1977799
60.839432 -99.314194 -1.5188407
62.644314 -98.614136 -1.1452972
83.040878 -98.120865 -1.2783105
85.139191 -98.080612 -0.59825039
91.917084 -99.652618 -0.6956172
-0.17775154 -96.930542 -0.62645817
71.831757 -96.079514 -1.7053134
72.370216 -96.202774 -1.7507485
74.630692 -96.166115 -1.4386489
79.430573 -96.980263 -1.1199908
80.728165 -97.395172 -0.94369769
82.855247 -97.604126 -0.78797024
60.874493 -94.01944 -0.038442072
62.293407 -94.049652 -0.16522735
65.678558 -94.077728 -1.5694647
66.988457 -94.508736 -1.1746787
68.957237 -94.70507 -0.88176566
70.911491 -95.32795 -1.1339563
72.493851 -95.238052 -0.65321255
74.935806 -95.626915 -0.44580922
79.411743 -95.452873 -1.0152652
-1.4865456 -93.686867 -0.4098658
27.082403 -92.355797 -0.28496763
31.378731 -92.763145 -1.3760356
32.369766 -93.306053 -1.3629209
57.478802 -92.135857 -1.4902395
58.983185 -92.401001 -1.1772226
60.954178 -92.812523 -0.97718805
62.949501 -93.230194 -1.1724234
64.760155 -93.539421 -0.96833169
66.722359 -93.695007 -0.39577296
69.012161 -93.736778 -0.34802756
70.919067 -92.234909 -0.61143672
73.66391 -92.251511 -0.56228179
74.747574 -92.551552 -0.35677877
76.898621 -93.599945 -0.83637875
83.075691 -93.533684 -0.43054396
21.453644 -90.279518 -0.40821144
25.746504 -90.902412 -0.73844665
26.685511 -91.146805 -0.33720139
36.911396 -90.178978 -0.68304014
47.377872 -90.22477 -1.2302767
49.136497 -90.488861 -1.1827538
51.168804 -90.710381 -1.2445263
53.632202 -90.896164 -1.251071
55.036533 -91.077301 -1.1017491
56.960827 -91.666977 -0.76590216
58.681721 -91.291222 -0.7992602
60.819328 -91.13607 -0.67170799
63.911175 -90.032448 -0.84234852
64.900551 -90.443481 -0.62682319
67.087212 -91.03524 -0.64543277
69.081902 -91.1959 -0.62195992
70.512138 -91.714302 -0.45474115
25.535419 -89.696487 -0.10798214
26.156212 -89.467606 -0.09181644
37.342758 -89.420547 -1.0878241
38.255009 -89.056831 -0.81921077
41.417328 -88.147568 -1.3122777
43.909214 -88.744705 -1.4212644
44.285332 -88.826256 -1.3842651
47.147346 -88.925774 -0.37886143
49.229622 -89.851677 -0.6986928
50.861458 -89.613647 -0.59757376
52.412712 -89.31562 -1.2224143
55.430977 -88.780701 -0.94324827
56.703457 -88.648621 -0.9795326
59.625061 -89.03669 -0.59048951
60.693829 -89.52034 -0.52884579
62.938095 -89.761131 -0.66874468
64.401886 -89.714424 -0.16902372
66.189583 -88.9739 -0.1661592
35.639271 -86.976288 -0.93600577
36.411133 -86.41703 -0.64514881
47.025032 -87.557571 -0.42259604
49.419407 -86.901817 -0.64055794
51.287243 -86.697243 -0.59358156
52.948322 -86.422783 -0.58744889
55.010635 -86.908989 -0.5197143
57.002796 -87.287865 -0.60494107
